# 3D point list with one line of data per point:
#   POINT3D_ID, X, Y, Z, R, G, B, ERROR, TRACK[] as (IMAGE_ID, POINT2D_IDX)
# Number of points: 514, mean track length: 5.39236
19212 -3.89605 -7.28202 7.31013 166 166 177 0.0512597 16 3438 18 3851 15 3608 17 3578
26729 -4.31398 -7.63319 -0.816968 94 98 99 0.922881 16 3992 15 4957 17 4156 18 4448
19213 6.30057 -5.11824 4.56079 18 21 21 2.44433 16 4755 15 3624
4040 13.14 -10.5064 17.486 20 25 21 2.32277 2 7978 14 7024 1 7832 9 5667 10 6432 12 6286 11 6143
26730 -1.28421 -7.3299 1.13494 144 145 147 0.890203 16 4926 17 4621 18 4939 15 5326 20 7474 22 7396 19 6486
19214 11.116 -12.5262 11.6353 26 38 54 0.125135 16 3355 15 3631
26731 -4.82174 -7.67399 -0.902025 89 94 99 1.04868 16 5038 15 5397 18 5122 17 4812
19215 -4.07964 -7.44709 7.18874 67 68 64 0.640625 16 3441 18 3853 15 3653 17 3595
26732 -1.53665 -7.21149 2.73847 129 129 120 0.55 16 5260 15 5644 18 5835 19 7734
19216 -4.99486 -7.40428 7.32052 156 160 174 0.139795 16 2239 18 2562 15 3654 17 2379
4043 13.4682 -10.1585 18.3344 138 187 255 2.51282 14 7025 1 7836
26733 -1.7403 -7.25831 2.7443 114 116 111 0.850701 16 5261 17 5121 15 5645 18 5430 19 7439
19217 -4.99486 -7.40428 7.32052 156 160 174 0.139795 16 2238 18 2561 15 3655 17 2378
4044 12.4857 -9.37151 17.1005 62 69 70 1.68808 3 5863 1 7837
26734 -4.09119 -7.70767 3.04773 178 176 171 0.675753 16 5262 15 5647 17 5505 18 5839
19218 -5.1921 -7.42093 7.31142 153 156 173 0.0884038 16 2245 18 2591 15 3656 17 2383
4045 13.2089 -10.0176 18.2548 64 74 76 1.8783 14 7027 1 7838
26735 0.00912678 -5.20103 -1.50343 36 42 48 1.97209 16 5573 15 5997 19 7347 18 6221 22 7964
19219 -5.1921 -7.42093 7.31142 153 156 173 0.0884038 16 2244 18 2592 15 3657 17 2382
26736 4.19714 -6.46767 -0.834244 120 125 127 1.02699 20 7662 21 7694 23 9993 24 9279
19220 -5.58464 -7.47365 7.3163 153 157 174 0.147297 16 2250 18 2597 15 3658 17 2386
4047 5.50852 -6.82113 -1.49361 78 89 98 1.36258 2 7585 24 8111 1 7841
26737 6.91173 -6.303 -1.01845 131 123 106 0.640521 21 2198 24 5472 19 1825 26 3388 22 2228 23 3013
19221 -5.58464 -7.47365 7.3163 153 157 174 0.147297 16 2251 18 2598 15 3659 17 2387
26738 -0.045663 -4.7348 -1.52126 36 42 51 0.754144 19 2131 18 4635 20 2450 22 4958
19222 -5.77128 -7.50009 7.3166 162 166 182 0.234593 16 2282 18 2601 15 3660 17 2390
4049 6.23941 -7.32692 -0.0906385 90 98 104 1.50978 3 8088 5 8079 6 7755 9 6300 10 7123 12 6276 1 7844
26739 -0.026167 -4.87439 -1.54281 47 58 70 0.829463 19 4476 18 5265 20 4835 22 6312
19223 -5.29051 -7.0266 6.82272 158 162 178 0.28138 17 3596 15 3661
26740 -0.00497432 -4.95504 -1.54578 51 62 75 2.22457 19 7349 18 6027 20 7728 22 7968
19224 -5.85018 -7.5081 7.31235 152 155 169 0.364198 16 3458 15 3662 17 3597 18 2603
26741 12.8237 -9.17464 2.66766 68 68 50 1.09754 20 1258 22 1271 19 978 27 956 24 1353
19225 -6.22077 -7.87091 7.68954 159 162 178 0.519781 15 3663 18 2602
26742 11.8834 -10.9297 0.595736 50 59 42 1.5724 20 1710 22 1698 19 1452 21 1678 23 2110 26 2290
19226 -4.11944 -7.61862 6.83402 125 126 126 0.216582 16 2279 18 2589 15 3683 17 2424
4053 14.7452 -18.164 7.26236 109 130 165 1.1155 18 4030 19 620
26743 12.7462 -13.8962 -0.63325 18 18 17 2.11547 20 1938 19 1662 21 1968 22 2080 23 2720
19227 -4.46002 -7.61053 6.91943 119 123 120 0.395649 16 3455 18 3878 15 3684 17 3622
4054 12.1936 -14.5554 6.11477 221 246 254 2.11197 5 7578 10 6380 12 5838 16 5238 18 5813 25 8053 26 11445 1 7847 2 7565 19 6386 22 6658
26744 6.76262 -5.41086 -0.738391 76 71 67 0.623058 20 2040 21 2100 22 4683 23 2892 19 1722 26 3189 27 5340
19229 10.9209 -11.253 7.88407 42 51 43 2.99169 16 292 20 165
4056 12.1595 -13.9816 7.06821 39 55 66 1.25913 3 7643 4 5771 6 7224 10 6386 11 6096 12 5845 13 6605 18 6071 2 7531 14 7011
26746 6.84097 -5.62419 -0.82855 28 26 22 0.887091 20 2045 21 2102 22 2145 23 2897 19 1730 26 3195 27 2624 6 6437 7 3609 5 7459 24 5464
26747 6.71536 -4.53977 -0.827143 40 36 28 1.21179 21 4713 22 2131 27 2734 19 1801 24 2724 26 3182
19231 11.3149 -11.3929 5.80057 10 14 14 1.83186 18 2710 26 327 15 3824
26748 6.82341 -5.52993 -1.07699 91 87 80 0.587489 20 2130 21 2184 22 2206 23 2998 24 5508 25 2573 19 1811 26 3375 27 5506
26749 6.95323 -6.70048 -1.01415 103 98 87 1.46762 20 2146 21 2206 23 5834 19 1836 24 7014 21 4664
19233 -1.96571 -7.38223 3.13837 142 142 138 0.307392 16 3635 17 3800 18 4044 15 3886
4060 13.6615 -15.1149 12.1373 26 34 35 1.21002 11 500 1 7854
26750 6.79158 -5.12608 -1.26199 90 86 80 0.994454 20 2196 21 2267 22 2289 23 3104 24 5568 27 3028 19 1891 25 2696 26 3565
19234 -1.98077 -7.4066 3.15145 148 148 143 0.894755 16 3636 17 3801 19 6260 15 3887
26751 6.83755 -5.67868 -1.23463 138 131 118 0.383209 20 2200 21 2275 22 2296 19 1898 23 3113 24 5573
19235 -2.15028 -7.39964 2.9765 186 210 238 0.950396 18 2866 19 6261 15 3888 16 2466
26752 6.60527 -3.59603 -1.37708 94 89 81 1.70984 21 2456 22 2472 23 3217 24 5625 27 3160 19 2074 22 6268 25 2817
19236 -2.38547 -7.28076 2.78165 45 45 41 0.634427 16 2491 17 2648 18 2867 19 5095 15 3911
4063 12.3353 -11.5832 14.4435 22 26 24 2.08693 10 5877 13 6645 1 7858 14 7041
26753 6.70451 -4.35658 -1.48805 70 67 64 1.044 20 4803 21 2335 22 4876 24 3172 25 2826 27 3176 19 2096 22 6277 26 3979 27 5708
19237 -2.60519 -7.29399 2.77557 39 39 36 0.264778 16 2492 17 2650 18 2868 15 3912
26754 6.61358 -4.90772 -1.6164 67 65 67 0.43267 22 2510 19 2108 23 3239 27 5780
19238 -3.01402 -7.33522 2.76909 50 51 48 0.293603 16 3651 18 4090 15 3913
4065 12.2769 -11.2891 16.6367 56 60 56 1.65423 2 6897 3 7004 1 7861 14 1334
26755 6.61181 -3.56484 -1.51381 129 125 116 1.46806 20 2424 22 4913 23 3353 24 3156 19 2150 25 2955 26 3969
19693 0.870268 -7.57076 -1.28085 27 35 40 0.273555 17 1910 16 3170
4520 -1.10913 -7.2912 6.5622 110 113 114 1.09312 2 8407 4 6369 5 8281 6 7959 7 7893 8 6606 9 6258 10 7062 12 6688 13 7473 14 7867 15 5830 16 5183 17 5430 18 5774 1 8497 5 8520 10 7303
27210 5.48451 -6.24713 -1.57327 85 85 91 1.97738 10 7605 11 6811 4 6862 8 7091 12 6923 5 8784 6 8500 3 8781 26 13046
23471 32.9951 -12.0969 6.24703 206 201 197 1.21111 24 1330 25 950 23 1518
8298 0.00145509 -7.52093 -0.825714 14 14 15 0.350313 10 7654 17 6179
19694 1.65603 -7.32172 -1.50331 80 85 92 0.383763 18 3527 16 3193
4521 -1.09178 -7.29119 6.36736 100 103 103 1.19971 3 8278 4 6062 6 7594 7 7540 8 6306 13 7250 14 7638 17 5035 1 8498 11 6348
27211 1.80508 -7.22381 2.79704 139 135 122 2.29986 11 6714 18 6275 5 8644 10 7484 6 8305 8 6919 9 6558 12 6849 13 7674 14 8089 15 6154 17 5866 10 7406 19 7934 20 8285 22 8315
23472 14.5009 -0.472618 1.3744 48 59 40 0.232282 24 4737 23 1633
8299 3.48883 -6.48255 0.828947 118 116 107 2.2788 15 6385 16 5946 8 7184
19695 11.6714 -12.2035 11.6731 19 23 23 2.34286 3 4320 17 2265 16 3344
4522 -1.1394 -7.10987 7.08963 101 103 99 0.458069 2 8159 3 8272 4 6371 6 7961 7 7895 8 6609 9 6261 10 7065 11 6351 12 6479 13 7251 14 7868 15 5534 16 5164 17 5421 18 5758 1 8499 5 8283
27212 3.60636 -7.01016 2.23479 81 97 113 2.15621 9 6660 17 6028 4 6761 25 10248 8 7040 16 5770 18 6452 11 6788 12 6890
23473 19.1498 -3.73029 2.4202 85 83 69 0.683714 21 5755 25 1069 26 1743 23 1656
8300 2.44848 -6.8177 9.33801 224 210 184 0.976725 3 8983 8 7174 2 8826
19696 -3.81234 -7.28579 7.32289 150 156 170 0.0405713 17 3575 18 3848 16 3435
4523 -1.1394 -7.10987 7.08963 101 103 99 0.458069 2 8160 3 8271 4 6370 5 8284 6 7962 7 7894 8 6608 9 6260 10 7064 11 6350 12 6478 13 7252 14 7869 15 5533 16 5163 17 5420 18 5757 1 8500
27213 4.44258 -6.54914 6.09431 172 167 155 2.06568 17 5826 18 6229 4 6498 5 8600 6 8107 8 6878 9 6518 10 7193 11 6445 12 6588 15 6006 3 8410 16 5586
23474 18.8679 -5.53576 2.6918 106 115 66 0.157927 26 6309 25 6831
8301 4.38778 -6.35059 5.74944 170 170 163 1.5249 13 7887 2 8830
19697 -3.81234 -7.28579 7.32289 150 156 170 0.0405713 17 3576 18 3849 16 3436
4524 0.0831435 -5.72416 -1.55485 27 34 41 1.54656 2 8408 17 5644 1 8501 16 5398 18 6021
27214 4.44258 -6.54914 6.09431 172 167 155 2.06568 17 5825 18 6228 4 6497 5 8599 6 8106 8 6877 9 6519 10 7192 11 6444 12 6587 15 6005 3 8409 16 5585
23475 5.67416 -5.88846 0.497575 57 74 89 2.45404 13 4914 14 5155
8302 3.41758 -6.55025 3.25967 57 58 50 2.73225 5 8966 6 8605 9 6812 10 7682 12 7057 17 6219 2 8831 16 5957
19698 -4.14015 -7.31861 7.32978 159 162 177 0.0629144 17 2342 18 2557 16 3440
27215 12.0299 -13.3748 8.38714 24 34 40 2.35352 17 5842 26 12552 9 6475 10 7104 11 6380 18 6354 5 8356 3 8367 6 8050
23476 46.0649 1.58087 5.35803 135 142 95 1.90561 24 1555 23 1804
8303 3.43693 -6.86697 4.54647 195 182 158 1.16855 3 8987 4 6979 2 8832
19699 -4.6033 -7.364 7.31921 134 140 157 0.106789 18 2559 16 3443
4526 -0.400111 -7.24679 -0.746831 132 138 142 1.36114 15 4979 1 8503
27216 0.829606 -7.57 -0.303455 62 76 94 1.19536 10 7038 11 6526 4 6337 5 8240 6 7928 8 6568 9 6219 12 6658 15 5749 16 5335 18 5572 3 8244 11 6309 18 5935 20 7609
23477 19.5287 -3.80104 2.09902 52 71 34 0.363561 24 1603 25 1210 26 1963 23 1837
8304 3.43693 -6.86697 4.54647 195 182 158 1.16855 3 8988 4 6980 2 8833
19700 -5.94203 -7.52539 7.31635 140 146 161 0.216752 17 3598 16 3459 18 3879
4527 -1.08879 -7.29397 4.36863 101 103 102 2.01106 4 6382 5 8286 13 7476 14 7870 15 5584 16 5203 18 5798 1 8508 3 8528 6 7967 9 6266 8 6615
27217 1.86157 -7.11008 8.46626 144 138 124 1.46372 6 7893 7 7833 8 6539 10 6997 11 6289 12 6417 4 6316 18 5723 11 6504 17 5654
23478 12.6483 -0.10619 0.655044 156 165 84 0.267993 26 2190 23 1988
8305 2.40738 -6.84967 5.83691 216 202 175 0.850401 3 8989 14 8310 2 8834
19701 -6.02616 -7.53752 7.31802 142 149 167 0.18862 17 3600 18 3880 16 3461
4528 -1.08898 -7.29187 4.77558 101 104 104 1.75001 12 6485 13 7259 14 7871 17 5059 1 8509 5 8279 6 7968 11 6355
27218 12.2512 -13.9453 7.39664 213 243 254 2.39784 17 5688 22 7747 20 7384 21 7891 12 6511 13 7032 14 7446 15 5604 12 6251 17 5456 18 5793
23479 19.4097 -3.7016 1.29774 127 142 90 1.10487 24 1774 25 1398 23 2031
8306 14.2755 -18.6097 6.14786 232 243 254 1.04215 3 8999 6 8601
19703 -6.23572 -7.60695 7.36585 143 149 164 0.317689 17 3603 18 3883 16 3466
4530 -1.41381 -7.30839 6.7147 118 118 109 1.94337 2 8164 3 8279 4 6075 5 8282 6 7610 10 7072 11 6075 15 5543 16 5175 17 5029 18 5338 1 8511 10 6753
27220 6.17256 -7.21461 -1.49739 60 69 77 2.10628 14 6919 13 6516 19 4373 22 4779 1 7058 10 6821 25 5727 7 7288
23481 41.4131 -20.1995 4.20529 62 85 42 0.332338 25 1432 26 2232 27 1614 23 2063
8308 3.5069 -6.61397 -1.11935 34 23 21 1.23658 6 8621 7 8581 14 8315
19704 10.5849 -12.0059 5.2371 38 45 58 0.939377 26 343 16 3592
27221 0.969999 -8.1498 3.12921 95 89 71 1.77327 5 7292 11 5530 16 4307 4 6002 12 6111 17 4551 7 6174 9 4793
19705 -3.63531 -7.42513 2.77842 69 71 66 0.102514 17 3820 18 4092 16 3654
27222 5.31483 -6.63023 -1.57731 64 67 74 1.47139 10 6875 11 6130 9 6046 3 7029 12 6275 2 6910 4 5804 21 4826
23483 13.6289 -8.48735 0.759083 75 78 50 0.577627 24 4994 27 1818 23 2086 20 4320
27223 12.256 -10.2558 13.8883 17 20 19 1.62072 5 7593 10 7121 9 6286 14 7021 1 7827 4 5797 13 6616
23484 11.6955 -10.0356 0.904978 54 67 37 0.659568 20 1595 21 1547 23 2105
19707 -1.59814 -7.33588 2.02104 126 128 123 0.565441 18 4135 16 3701
4534 -0.837464 -7.25264 1.49328 84 88 88 1.24157 2 7852 18 4922 15 5302
27224 10.5201 -11.356 3.20521 102 121 149 1.82473 17 5516 18 5852 15 5677 26 8758 10 6298 1 7023
23485 13.1336 -0.441016 0.373312 35 42 31 0.496764 26 2396 23 2174
8312 -0.50086 -8.20755 6.97413 197 190 177 0.000413617 14 8313 15 6394
27225 7.66234 -8.91051 10.3748 35 38 37 0.8346 5 7005 8 6427 9 5720 4 5342 6 7361 10 6496 11 5293 3 7042
23486 13.1539 -0.374762 0.0961964 160 163 92 0.839095 25 5111 26 2597 23 2176
8313 0.351329 -6.53032 -0.191804 106 110 109 0.708834 4 7000 2 8846
19709 -5.8168 -7.77665 2.32917 117 121 126 0.222177 17 3859 18 4143 16 3705
27226 6.63658 -7.69321 1.1352 81 95 105 1.74093 10 5893 11 5187 16 4434 17 4637 25 4738 4 5273 8 5482 9 5143 12 4324 26 1390
23487 24.7568 -2.07116 1.21077 97 93 54 0.992318 25 5002 26 2404 23 2195
8314 0.808032 -4.37605 -0.259712 107 111 110 2.37317 13 7915 2 8847
19710 2.21363 -6.95606 1.55487 148 145 132 0.631314 17 3869 19 3614 16 3718
4537 6.93379 -6.5055 -0.90034 121 113 97 1.80052 2 8419 3 8321 24 9276 25 9232 1 8523 20 7661
27227 13.4915 -11.4121 13.4793 40 41 42 1.45189 10 6355 12 5819 3 6855 4 5165 13 5977 1 7042
23488 24.8465 -2.30729 1.18949 54 56 38 0.369959 25 5003 26 2405 23 2197
19711 -5.36727 -7.72385 1.9178 111 113 115 0.157638 17 3879 16 3725 18 4169
4538 6.82303 -6.74051 -1.55815 50 50 51 2.16456 2 8194 19 7306 20 7074 22 7595 25 9263 1 8541 26 12463
27228 0.647724 -7.10558 0.136368 99 100 95 0.592902 19 3940 21 6909 2 6439 4 4903 5 6520 6 6268 7 6242 9 4869 11 4966 12 5029 13 5731 14 6025 15 3103 16 2836 17 2987 18 3183 1 6623 3 6541 20 4229 22 4351 10 5558
23489 19.4141 -2.5969 0.640135 110 120 66 0.445135 24 4937 25 5123 26 2417 23 2205
19712 -2.32888 -7.38879 1.52291 121 123 120 0.193251 17 3902 18 4165 16 3745
4539 6.81247 -6.7258 -1.55641 53 52 53 2.49076 2 8193 19 7307 20 7075 22 7596 23 9318 25 9262 1 8542 26 12464
27229 3.21035 -6.88937 2.85832 19 21 21 1.95507 13 4105 25 6429 2 2398 3 4774 4 4687 12 3549 14 2126 15 2714 16 2429 17 3794 19 336 21 240 22 463 1 2359
23490 19.6649 -2.84116 0.791135 56 66 45 0.748348 24 1925 25 1572 23 2207
8317 -0.324434 -7.30536 3.72574 198 187 173 2.42716 12 7072 13 7909
19713 -2.2402 -7.39932 1.3048 121 122 119 0.700101 17 3945 16 3749
4540 6.9785 -6.70198 -0.823969 27 26 25 1.22554 2 8420 21 8124 22 8148 23 9992 24 9278 1 8543 19 7861 26 12730
27230 3.73552 -6.46155 3.79372 114 117 115 0.480937 9 5317 11 4608 2 6067 4 4643 6 5997 7 5975 8 4863 10 5183 15 3780 16 3525 17 3693 18 3945 1 6240 9 4549
23491 19.2314 -3.37267 0.639269 42 54 34 0.612991 24 4941 23 2211
8318 4.7915 -6.98198 -0.487916 102 107 110 0.0939259 3 9007 2 8855
19714 -3.03681 -7.49435 1.53252 122 124 123 0.014218 17 3904 16 3750
4541 12.7715 -12.3821 3.53862 21 25 23 1.48562 2 8179 3 8544 26 12247 1 8547
27231 5.85757 -7.01027 -1.53734 30 33 32 1.92263 14 6920 4 4360 13 5950 2 1445 24 5648 1 4288 8 6034
23492 4.01781 -6.67741 -0.136334 158 116 77 0.194994 24 5044 23 2325
8319 2.48583 -6.70494 4.14684 217 204 178 1.99699 13 7910 14 8325
19715 -1.31808 -7.2881 1.13789 115 116 112 0.407305 17 3941 18 4196 16 3780
4542 6.34337 -6.46993 -1.52904 93 99 89 1.40414 2 8211 19 7324 20 7076 21 7170 22 7613 23 9343 24 8716 1 8556 26 12465
27232 12.1975 -13.5292 8.15227 71 100 140 1.66104 5 5769 16 4261 3 5904 10 3134 11 4200 17 4474 12 4275 2 4084 13 3457 1 4313
23493 3.9983 -6.71061 -0.203963 105 57 43 0.150197 24 5144 23 2328
27233 3.67402 -6.68899 -1.53139 50 44 45 1.55783 10 1627 4 3346 11 1187 24 3296 12 1207 13 1529
23494 19.5842 -2.45222 0.276188 50 63 26 0.373602 25 5126 26 2622 23 2399
19717 -3.24564 -7.50534 1.19762 114 118 117 0.299015 17 3948 18 3027 16 3783
27234 4.97776 -6.12562 10.6058 81 89 98 0.535899 8 4819 13 5281 9 4501 11 4544 12 4615 2 6024 1 6178 4 3343 6 5942
23495 19.0479 -2.65241 0.215864 84 99 56 0.870176 25 5127 26 2624 23 2404
8322 1.14173 -2.72447 -0.482027 106 106 98 0.24798 18 6645 20 8603
19718 -4.76045 -7.69256 1.20845 115 117 119 0.3944 17 3949 18 4244 16 3784
4545 10.8497 -11.0963 5.33589 19 24 24 2.06975 19 7485 26 12169 1 8570 2 7947 3 8027
27235 4.93132 -6.64815 -1.52167 76 83 95 1.36945 10 3560 11 4359 5 1873 6 1808 7 1822 9 3003 12 4436 13 5127 14 5407 18 3575 2 4386 4 3169 8 3354 11 778
23496 19.2923 -3.56401 0.233738 46 57 34 1.15598 24 2134 25 5137 23 2415
8323 6.87459 -6.02099 -1.42385 36 37 37 0.515598 5 358 6 340 3 17
19719 -4.76045 -7.69256 1.20845 115 117 119 0.3944 17 3950 18 4245 16 3785
27236 4.97387 -6.39764 -1.56369 59 61 68 1.71789 10 3542 11 3002 4 3161 7 1772 8 3315 13 3549 3 1816 6 1796 12 2986
23497 23.8101 -6.28385 -0.00137872 36 46 32 0.398705 24 2348 25 1948 26 2650 23 2433
27237 5.33234 -6.72871 -1.54603 41 62 33 0.787383 10 3503 11 2820 14 999 4 3115 5 1764 6 1708 9 2953 12 2864 13 3421
23498 25.632 -9.37819 -0.114443 99 120 73 0.905398 25 5285 23 2448 26 9412
8325 6.88202 -6.02472 -1.20408 37 37 38 0.739673 5 373 6 350 3 32
27238 12.8533 -10.7332 18.6851 62 63 49 1.66231 6 5698 14 1350 4 3107 13 3653 2 4271
23499 27.1013 -11.6463 0.528357 77 95 61 0.737014 20 4371 21 1768 26 2668 23 2450 25 1805
8326 6.87423 -5.89344 -1.08067 48 47 46 0.429691 5 384 6 353 3 35
19722 7.20472 -8.48222 0.279647 38 44 51 1.24497 18 5039 16 3868
4549 13.5684 -9.91418 17.8236 135 181 255 2.02804 1 8579 3 8359
27239 11.8212 -12.8107 12.6624 131 167 220 1.37201 5 5922 8 4539 16 3327 17 4351 18 4661 4 3060 6 6666 3 4325
23500 14.1675 -7.14081 -0.108436 101 106 54 0.561912 21 1774 24 2186 23 2461
8327 6.87576 -5.95636 -1.14688 46 46 46 0.372058 5 382 3 37
19723 -1.28297 -7.30154 0.105784 130 133 132 0.180568 17 2989 18 3188 16 3887
4550 4.18155 -4.15018 -1.59128 64 70 82 0.454232 2 8248 1 8580
27240 5.7961 -6.98897 -1.47544 38 42 46 0.676025 10 4870 11 4186 7 5732 8 5479 2 1448 3 1565 1 4290 5 4421 6 5767 12 2738 13 3289 14 809 4 2934
23501 15.2331 -9.57089 0.110038 44 51 39 0.340132 21 1793 22 1788 23 2478
8328 6.82977 -5.64559 -0.837897 55 55 50 0.687304 5 387 6 362 3 42
19724 -1.2819 -7.29974 0.0731432 131 134 132 0.224389 17 2990 18 3189 16 3888
4551 12.1297 -13.2863 7.22216 26 35 38 2.65193 2 8240 12 6252 13 7314 17 5682 18 6069 19 7459 26 12145 1 8583 11 6368
27241 -0.638171 -7.21753 2.67959 26 27 22 1.16583 12 2483 20 209 22 258 14 2994 19 273 1 3349 4 2318
23502 4.95391 -3.91336 -0.265229 34 40 32 2.19289 22 1928 24 2196
8329 12.2688 -13.0465 -0.123138 11 13 12 1.91499 2 85 14 42 3 60
19725 -3.40177 -7.74038 0.0640618 24 27 28 0.669156 17 4069 18 4334 16 3895
4552 12.1996 -13.4276 7.54095 197 238 254 2.68735 2 8242 4 6426 11 6370 12 6513 17 5850 19 7745 22 8041 26 12563 1 8584
27242 3.65684 -6.47907 1.60833 88 91 91 0.57599 9 1448 10 1782 7 2236 15 1143 11 1438 12 1467 13 1790 14 1862 16 741 23 649 3 2215
23503 14.1906 -14.3051 -0.283498 19 21 20 1.39507 21 1840 24 2441 23 2506
8330 8.27808 -6.12935 2.45722 47 60 39 3.40722 23 4670 3 143
19726 -3.65324 -7.54336 0.0190632 69 76 81 0.159503 18 4335 16 3896
27243 3.75088 -6.47229 1.60884 89 92 92 0.364065 9 1446 11 1436 12 1367 13 1685 16 739 17 961 18 996 6 2229 24 451 4 1473 8 1692 10 1779 14 1860 23 786
23504 16.6948 -0.655227 -0.489686 118 138 49 0.789132 24 5305 23 2571 25 5362
8331 6.77544 -4.16306 2.72257 26 31 24 1.85823 6 995 3 191
27244 3.62582 -6.75008 -1.27268 42 35 33 0.835972 7 2207 18 2012 4 1427 9 1327 13 1635 14 1811 15 1972 16 1850 25 2722 10 1647 11 1293 5 2230 6 2193 12 1218 17 1940
23505 17.2397 -0.782699 -0.680686 72 91 45 0.696834 24 5309 26 3070 23 2576
19728 0.550077 -7.09886 -0.08758 153 154 148 0.622318 19 3994 22 4421 16 3925 21 6948
27245 5.16171 -6.70959 1.96157 109 118 119 0.714557 17 881 22 929 4 1201 5 1950 6 1869 7 1850 8 1228 9 3059 10 1320 11 929 12 960 13 1333 14 1494 15 1058 16 2500 18 914 26 508 3 1883
23506 17.7598 -1.09537 -0.581999 86 107 57 0.68075 24 5315 25 7247 26 2837 23 2578
8333 9.10019 -5.95992 5.2439 26 30 29 0.108261 5 3512 3 219
27247 6.80573 -7.91305 1.18968 31 35 36 1.75799 16 2650 17 1166 18 3009 4 982 5 1687 7 1636 11 2833 12 2881 3 1593
23508 18.39 -1.70713 -0.484796 90 104 54 0.403806 24 5176 25 5368 23 2583
8335 15.5499 -9.80646 16.5031 43 51 53 1.82135 14 274 3 300
19731 -4.78234 -7.69038 -0.915505 50 55 61 2.11584 18 1727 16 3993
4558 7.15374 -8.36835 1.80702 183 175 167 0.745006 3 5972 2 5795 26 5985
27248 12.2592 -9.95029 12.5571 18 19 16 1.90897 5 4052 8 2907 10 3173 11 2657 4 751 6 1072 9 2557
23509 18.2738 -1.78048 -0.412766 126 129 71 0.799048 24 2317 25 5370 26 2842 23 2584
19733 -0.0315757 -4.3584 -0.737032 23 24 28 1.52812 19 4267 16 4022 22 4743
27250 0.38632 -7.13566 -0.770846 78 78 76 1.60697 6 8414 8 7007 5 8656 9 6630 10 7498 11 6725 12 6864 7 8265 14 8101 4 6787
23511 18.7349 -1.91252 -0.315875 113 133 53 0.0154461 24 2316 23 2588
8338 15.5933 -9.09495 17.6029 70 82 90 1.89947 14 285 3 319
19734 0.870417 -8.27177 -1.34814 17 18 20 2.07012 18 4536 16 4084 17 4252 5 5166
4561 11.6608 -12.8433 9.27538 188 238 255 1.42554 12 6523 13 7515
27251 1.36139 -7.60976 2.33569 72 75 75 1.35926 16 5706 19 8075 3 8747 4 6776 13 7753 14 8164 15 6158 1 9052
23512 17.8745 -2.01165 -0.703987 132 144 50 1.11857 26 3077 23 2593 25 5373
8339 15.9437 -9.247 18.1003 128 161 218 0.00276071 14 286 4 215
27252 3.60186 -7.02434 1.96566 81 98 114 1.1857 16 5627 17 5879 3 8620 4 6676 5 8604 6 8276 15 6063 2 8483
23513 18.3699 -2.21974 -0.664665 142 152 79 0.28392 24 5329 25 5378 23 2595
8340 6.9085 -6.32255 -1.22041 74 74 72 0.210736 5 679 6 676 3 345
19736 10.2181 -10.134 9.08399 18 22 23 2.61062 3 4240 18 3729
27253 1.40899 -7.45968 -1.50303 70 74 80 2.03972 18 5989 7 8098 9 6432 16 5382 6 7910 17 5628 5 8218 11 6511
23514 19.5455 -4.5065 -0.339636 104 118 64 0.52384 21 4527 25 5270 23 2610
19737 -1.92372 -7.06398 7.24017 57 67 78 0.192152 17 4406 16 4212
4564 5.36527 -6.73427 -1.53659 44 48 42 2.26568 2 8261 3 8386 14 7901 19 7308 20 7684 21 7726 22 7615 23 9723 25 9268 1 8603 26 12477
27254 1.29409 -7.68338 2.76875 66 68 69 1.46551 7 7480 8 6238 13 7594 2 8510 3 8501 4 6565 5 8214 6 7907 9 5880 10 7014 11 6509 12 6648 14 7978 15 5899 16 5464 17 5727 18 5829 19 7943 20 8286 22 8204 1 8884
23515 22.8319 -5.31708 -0.978706 21 25 18 1.05315 21 4616 24 2547 23 2616
8342 13.2348 -14.8495 -0.640845 7 8 8 0.781883 14 3094 3 376
19738 8.96789 -8.28694 6.40047 12 18 18 0.626153 1 5930 17 3590
4565 5.37079 -6.74598 -1.53414 34 37 34 2.2169 2 8260 3 8385 11 6583 12 6713 13 7506 14 7900 19 7309 20 7685 25 9267 1 8604
27255 1.81645 -6.5662 -1.62925 39 42 47 0.704966 16 5575 22 7626 19 7331 13 7589 14 7973 15 5996 2 8365
23516 10.2725 -2.84991 -0.54435 34 43 29 0.583872 25 7275 23 2620
8343 3.91126 -1.71812 -0.280768 47 52 54 0.67751 9 1358 3 396
27257 6.97288 -8.01325 -0.888093 66 70 74 1.88596 9 6473 3 8360 10 7098 5 8045 6 8059 25 8589 26 11907 3 8062 7 7990 8 6841
23518 24.2781 -8.14258 -1.04131 99 120 52 0.529328 24 5366 26 3118 23 2646 25 2173
8345 13.5799 -15.096 1.31198 58 68 69 1.17252 22 5963 3 407 26 6498
19741 11.4892 -12.8666 8.25333 47 68 114 1.46978 18 2639 16 4254
4568 11.7324 -12.7636 12.3672 30 38 37 2.53036 2 8263 3 8376 1 8607 13 7333
27258 0.343875 -6.83194 -1.67296 4 6 4 1.49977 5 8275 11 6545 13 7470 16 5124 3 8274 6 7963 9 6249 15 5800 8 6611 17 4943 22 7630 18 5704
23519 24.236 -8.1305 -1.04175 97 117 49 0.307809 24 5365 26 3119 23 2647
8346 10.8478 -11.0358 1.06768 12 14 13 1.95077 1 3744 14 3115
19742 -3.41167 -7.64758 4.90695 34 45 60 0.961352 17 4487 18 3974 16 4273
27259 0.156979 -7.13635 -0.642271 76 77 75 1.25032 6 7957 8 6602 3 8268 5 8269 8 6813 9 6248 12 6685 13 7471 18 5599 22 7554 2 8154 4 6592
23520 27.2203 -11.4956 -0.530393 27 32 24 1.16444 20 4539 26 2894 23 2659
8347 11.0579 -11.1573 1.16781 24 30 22 2.08899 5 111 14 3113
19743 -3.78562 -7.41731 2.76919 47 48 46 0.236738 17 3821 18 4093 16 4339
27260 0.763921 -7.59464 1.56797 28 29 27 1.22388 6 7554 8 6274 2 8133 3 8235 4 6343 12 6450 13 7205 14 7603 15 5686 16 4915 17 5161 1 8456 19 7097 22 7816 5 7870 7 7498 9 5909 10 7031 11 6315 18 5460
23521 33.5277 -19.9514 -1.63272 88 98 87 0.697092 24 2614 25 2196 23 2685
8348 12.5682 -13.1924 2.29316 160 160 159 0.426136 5 3446 3 431
27261 5.29125 -6.74307 -1.50186 78 86 93 1.45301 8 6671 11 6388 13 7325 4 6458 2 7586 3 8101 5 8084 6 7762 7 7708 9 6315 10 7142 12 6532 13 7048 14 7442 19 5906 20 6165 21 6265 22 6209 23 8709 25 8646 1 7869
23522 16.3308 -0.462939 -0.814807 88 115 89 0.330985 24 2488 23 2784
8349 11.0569 -10.866 2.48617 29 36 26 1.81577 5 424 7 3139 3 440
19746 -4.32926 -7.52821 0.300973 106 108 110 0.346896 17 4702 18 5026
4573 3.2366 -3.61303 -1.58929 80 87 103 0.471343 2 8275 1 8614
27263 6.07492 -7.15684 -1.44356 40 45 45 1.54156 5 8386 10 7112 9 6492 2 7981 3 8087 6 8076 1 8265 12 6496 11 6561
23524 16.1083 -0.540237 -0.946495 42 48 29 1.04215 24 2665 25 2292 23 2791
8351 11.2371 -10.959 2.70347 14 17 16 0.410248 3 450 7 95
19747 -3.3966 -7.74549 -0.572344 22 25 25 0.531271 17 4783 16 4584 18 5101
4574 3.84871 -4.86727 -1.59629 79 85 100 1.13978 2 8462 1 8615
27264 0.296305 -6.89435 -1.63143 32 46 71 1.51634 5 7915 11 6342 12 6474 16 4721 3 7932 13 7244 15 5509 2 7819 17 4946 18 5229 22 7629
23525 16.0103 -0.545355 -0.991691 96 116 36 0.747482 26 3069 23 2792 25 5485
19748 -4.20897 -7.59485 -0.892364 103 106 108 0.10172 17 4810 18 5120 16 4610
27265 0.689676 -7.16091 -0.456656 48 49 48 1.80727 11 6328 16 5012 12 6155 3 7907 5 8263 6 7949 7 7882 9 6453 10 7295 17 5275 18 5937 2 7807 11 6538
23526 16.6144 -0.667325 -1.07741 92 115 61 0.624117 24 5425 25 5585 23 2793
8353 11.392 -10.7522 3.11875 13 15 14 0.669198 5 3460 3 456
19749 -5.79128 -7.76604 -0.895133 82 86 92 0.293778 18 5123 16 4612 17 4813
27266 0.719483 -7.55965 1.12497 66 70 69 1.77884 4 6033 6 7566 7 7518 8 6272 9 5921 10 6699 11 6021 16 4415 17 4646 18 5492 13 6887 15 4812 2 7242
23527 16.6394 -0.714128 -1.09842 24 27 18 1.72036 24 5426 25 2476 23 2794
27267 1.39393 -7.54066 1.89812 117 120 117 1.41784 8 5760 17 5151 19 7083 20 7434 22 7353 2 8120 3 7861 4 5991 5 7837 6 6991 7 6944 9 5440 10 6663 11 5974 12 6100 13 7187 14 7577 15 5671 16 4901 18 5457 21 7896 1 8443
23528 18.0969 -1.27601 -1.28403 69 92 33 1.19578 25 5589 23 2809 26 3315
8355 7.77193 -6.07308 2.75556 177 232 255 1.83986 8 2695 3 492
27268 2.64786 -6.74724 -0.416485 135 132 123 1.4055 4 5969 15 5747 22 6967 3 7828 5 7809 6 7517 7 6915 8 6207 9 5859 10 6637 11 6270 12 6408 13 7158 14 7563 16 5030 17 5274 18 5571 19 6683 20 6977 21 7661 2 7732
23529 18.5192 -2.24227 -0.970437 43 50 25 1.20937 24 2519 25 5497 26 3079 23 2813
27269 2.85286 -6.65069 -1.29265 120 117 109 1.38552 13 7148 20 6175 2 7088 3 7816 5 7800 6 7502 7 7443 8 6194 9 5843 10 6616 11 5919 12 6028 13 6795 14 7154 15 5484 16 5105 17 5345 18 5678 19 5914 20 4651 21 6270 22 6216 1 7341
23530 19.5307 -2.95256 -1.05701 97 114 77 0.509813 21 4684 24 2532 25 2325 26 3088 23 2825
19753 -4.13696 -7.64731 6.74115 103 108 111 0.663386 18 5350 16 4807
4580 4.45928 -6.55803 2.94396 162 160 150 1.15369 2 8284 3 8405 4 6483 5 8403 6 8101 7 8024 8 6871 9 6516 11 6613 12 6571 13 7359 14 7749 15 6035 16 5606 17 5861 19 7460 20 7863 22 8044 1 8622
27270 5.43611 -6.7862 0.72039 106 117 122 1.187 7 7314 15 5347 20 5786 5 7674 6 7359 8 6425 9 6060 18 5876 3 7705 10 6884 11 6167 12 5944 16 5290 17 5198 25 8276 2 6949 4 5844
23531 25.5749 -7.34664 -1.25699 90 75 63 0.427484 21 4621 24 2553 23 2850
8358 12.0291 -9.56164 7.04978 54 67 46 0.0692909 5 3500 25 107
19754 -2.05955 -7.38193 4.0532 122 123 119 0.792187 17 5472 18 5391 16 4839
4581 5.24401 -6.38215 10.3583 52 55 53 1.12451 2 8286 7 8025 9 6351 10 7179 11 6446 13 7369 14 7755 1 8623
27271 5.52618 -6.82568 -1.50171 74 82 88 2.06178 5 8081 6 7761 7 7702 8 6667 19 6761 22 7068 23 8708 25 8645 26 11974 9 6312 18 6001
23532 24.2612 -8.45536 -1.4564 85 112 49 0.536092 24 5370 26 3124 23 2863 25 2367
8359 12.0291 -9.56164 7.04978 54 67 46 0.0692909 5 3501 25 106
19755 -2.42974 -7.24882 3.73561 183 193 213 1.35428 18 792 16 4848
4582 2.91018 -4.27435 -1.58388 83 89 102 1.08051 2 8475 1 8624 3 8625
27272 11.2571 -11.616 6.06128 34 45 38 2.28223 5 6825 12 5805 18 5365 2 6785 3 7608 13 6562 19 6348 22 6598 23 6655 26 10318 1 7030 25 8007
23533 6.50809 -3.17712 -0.734346 90 81 71 0.234703 25 2429 26 3163
27274 0.253586 -7.12607 -1.03595 31 35 37 0.627693 6 6316 8 5858 9 5542 10 6274 3 7392 11 5610 12 5751 13 6408 15 4334 14 6764 1 6685 2 7284 16 4060 2 6490 19 4265 4 5651 20 6092 22 6170 11 5611 12 5752 13 6409 15 4333 16 4061 17 4227 3 7393 1 6684 14 6763 2 6489 2 7285 17 4226 18 4515 4 5650
23535 3.21399 -6.79784 -0.726178 31 39 69 0.0778223 24 5486 23 2920
8362 12.0906 -9.68792 8.28263 37 46 35 0.956938 5 526 14 197
19758 -1.294 -7.3132 1.9303 174 171 164 1.47744 20 7865 22 7760 19 7053
27275 0.87091 -7.60761 -0.497936 31 34 34 1.46666 5 7313 6 7047 7 6992 8 6264 9 5898 10 6694 11 5560 16 3977 17 4799 4 5596 12 5685 2 2957 3 7333
23536 2.68335 -6.74289 -0.795888 161 156 143 0.170648 24 5488 23 2924
8363 8.10842 -5.6087 4.70764 116 140 146 0.244787 21 3365 3 538
27276 0.728922 -7.58918 -0.834927 52 55 57 1.92352 10 4354 22 6137 21 7680 17 1720 20 6032 3 3037 4 2169 7 2932 8 2414 11 2179 12 2200 13 2611 16 1619 18 3379 19 4206 5 5207
23537 6.18349 -0.522631 -0.733983 88 82 77 0.818145 25 2660 26 3534 23 2953
8364 12.237 -9.92285 8.45967 23 25 22 0.753492 2 536 4 132 3 539
19760 -1.35605 -7.30487 0.313198 143 142 138 1.01111 19 5542 20 6840 22 6848
4587 3.60367 -6.76585 -0.7205 79 47 37 1.17987 2 8293 3 8414 4 6667 5 8422 6 8109 7 8042 8 6722 9 6358 10 7372 11 6615 12 6742 13 7544 14 7757 15 5962 16 5546 17 5789 18 6195 19 7261 20 7643 22 7904 23 9995 24 9283 25 9629 1 8630 22 7553
27277 1.1423 -7.85121 1.92416 72 76 75 1.31991 5 6437 17 3870 3 7301 6 4919 7 4871 10 4229 16 4389
23538 6.61449 -0.800634 -0.708074 112 111 112 1.28522 26 3329 23 2961
8365 12.3166 -10.0065 8.5323 22 24 21 1.04736 4 131 7 493 3 540
19761 -4.49472 -7.71085 -0.4982 93 97 100 0.598852 17 4785 16 5006
4588 3.91486 -6.89409 2.22004 80 93 107 1.56294 2 8303 4 6495 16 5624 25 9791 1 8633
27278 2.62316 -7.01739 12.5452 212 216 229 1.46432 4 4745 11 4781 2 7175 3 7247 6 6097 7 6082 12 4824 13 6273 14 6616 1 7405
23539 6.22105 -0.805245 -0.721847 135 132 130 0.512233 25 2538 26 3330 23 2962
8366 12.1695 -8.85341 9.41884 34 40 30 1.13437 4 2478 7 512
19762 -1.37064 -7.27161 -0.817026 111 112 110 0.894493 17 5299 16 5034
4589 3.84891 -6.92638 2.81727 107 121 146 2.14313 4 6506 5 8426 6 8116 9 6369 11 6453 15 6048 17 5710 1 8634
27279 2.62943 -6.75918 0.350354 137 133 122 0.748296 15 4871 20 5832 24 8919 22 5926 3 7232 5 7239 6 6964 7 6917 9 5393 10 6113 11 5448 13 6810 16 4491 17 4696 18 5016 19 5586 21 6905 2 7146 4 5515
23540 6.27529 -1.24678 -0.79671 103 92 85 0.25786 25 5693 23 2966
8367 9.44479 -6.36079 7.41374 13 17 16 0.161327 8 168 3 573
19763 12.7525 -13.037 12.615 17 21 18 1.90068 18 5725 16 5137
4590 3.83218 -6.82668 2.75792 111 123 148 2.8461 2 8304 12 6758 13 7551 16 5612 18 6269
27280 3.568 -6.50758 1.19685 144 140 128 1.3049 5 7119 6 7455 9 5804 10 6575 11 5877 12 6004 16 4913 17 5160 18 5459 25 8978 8 6158 13 6165 14 6508 15 5307 19 5446 20 5693 21 6799 23 8991 24 8347 7 7401 22 5740 3 7146 4 5912
23541 6.75087 -4.86078 -1.01464 151 145 127 0.116421 26 3367 23 2991
8368 12.6248 -9.32217 11.0049 15 17 15 0.759292 6 554 3 575
19764 -4.19969 -7.46198 7.07395 99 100 95 0.0775617 17 5031 18 5344 16 5185
4591 6.36278 -13.0708 5.98367 138 140 135 0.49593 18 2795 1 8635
27281 3.78151 -6.43315 -1.57439 116 117 123 1.62296 6 5921 9 5259 18 5699 5 6153 25 7517 3 7097 10 6538 11 5841 14 7092 19 4442 20 4764 21 6300 23 8732 24 8747 1 7216 4 5882 5 7081 8 5590
23542 3.99987 -6.71077 -0.931118 76 48 41 0.0442844 24 2828 23 3027
8369 16.8658 -12.1952 17.909 30 35 33 1.20044 13 5875 3 607
19766 -2.91943 -7.69086 4.11376 179 199 232 1.49429 18 5394 16 5224
4593 3.38464 -6.65787 0.155308 26 27 22 0.606939 15 5939 1 8640
27283 12.4322 -14.8044 5.93345 226 245 254 2.06324 26 8568 3 6946 11 5687 15 5256 16 4863 25 4321 10 6379 17 5103 19 5276 22 5618
23544 6.22429 -0.410208 -0.833771 138 126 97 0.390946 25 5765 23 3066 26 3533
8371 6.97913 -7.08215 -1.52427 53 52 50 1.16437 6 3748 3 659
19767 -1.88456 -7.46587 3.04767 180 176 169 1.71722 17 5502 19 7429 16 5249
4594 3.59922 -6.84436 3.11154 103 113 130 0.19399 20 8107 22 7733
27284 6.93254 -8.03641 -0.722284 30 35 41 1.88428 4 5763 5 7604 10 6376 25 7313 3 6937 6 7294 8 6362 7 7269 9 5977 14 5141 18 5956 12 5149 17 5286
23545 6.24121 -0.587725 -0.833624 158 148 126 0.124216 25 5689 26 3535 23 3067
8372 6.89468 -6.66935 -0.725148 29 29 28 1.13879 8 34 3 676 4 16
19768 -5.91223 -7.85511 3.21776 84 91 101 1.22101 18 5433 16 5255
4595 4.15832 -6.84133 12.2326 65 68 76 1.27195 2 8486 3 8622 6 8280 1 8646 4 6684
27285 12.5924 -13.6472 5.03391 46 61 71 1.44943 4 5703 19 3537 15 5267 20 3869 21 3835 22 3923 23 6830
23546 6.20136 -0.652446 -0.799937 109 101 94 0.386206 25 2665 26 3536 23 3069
8373 6.91199 -6.7549 -0.727032 28 28 29 0.752342 4 17 8 35 3 678
27286 -0.343167 -7.2113 -0.0174251 72 74 73 0.585915 5 6612 9 4952 12 5127 13 5812 4 5003 8 5262 17 3059 18 3244 3 6633
23547 6.33129 -1.03031 -0.841046 145 138 116 2.60128 23 3071 25 5692
8374 7.31434 -6.93748 -0.540461 32 43 57 0.816711 7 1114 3 679
27287 0.222671 -6.79333 -1.63244 16 18 24 0.860108 5 6593 9 4946 12 5107 3 6606 13 5789 15 2140 2 3219
23548 6.32316 -1.26336 -0.973962 156 147 128 0.597986 25 2798 23 3072
8375 13.0512 -14.4954 1.83977 20 23 20 0.486318 5 405 3 698
27288 0.732387 -7.56138 -1.22647 47 54 55 1.31347 8 5803 10 6213 7 7008 3 6528 5 7331 9 5486 11 5576 12 5704 13 6387 14 6724 15 4331 16 4086 17 4253 18 4511 19 1849 22 4738 2 7251 15 1855 1 6615
23549 6.51649 -2.84832 -1.1607 97 90 78 0.734614 26 3712 27 2994 23 3074
8376 17.7912 -22.2857 2.44625 20 24 23 0.345686 14 827 3 699
19772 -4.6208 -7.50052 2.70529 120 122 119 0.0474059 18 5849 16 5263
27289 0.801572 -8.21686 -0.823651 29 31 31 1.96469 5 7311 7 6970 11 5998 12 5683 16 4008 17 4825 4 5594 10 6196 18 4469 8 6263 9 5463 3 6500 6 7021 18 5138
23550 6.51649 -2.84832 -1.1607 97 90 78 0.734614 26 3713 27 2995 23 3075
8377 10.5134 -12.1164 1.20813 21 24 21 3.18465 6 3597 26 2079
19773 -2.02003 -7.4384 0.794624 110 112 110 0.750653 17 5543 18 5887 16 5288
4600 2.16061 -3.11621 -1.60581 90 93 99 1.61119 23 10045 1 8653 19 7373 22 7981
27290 0.817761 -8.18895 -1.21956 24 26 26 1.59026 12 4995 17 4222 18 4508 4 5592 3 6499 5 6467 6 7018 9 5462 10 6195 11 5538 15 1853 2 2954 7 6968
23551 6.65635 -4.04191 -1.09558 130 123 110 0.288584 24 5553 27 2853 23 3086
19774 -0.236811 -2.62902 -0.739024 17 18 22 1.15703 19 7296 16 5371
4601 3.3243 -7.1731 2.54388 121 135 159 1.94112 12 6607 1 8655 19 7486
27291 1.03213 -8.00314 2.66389 57 60 59 1.28167 5 2970 10 2352 11 3764 18 923 3 6457 12 4942
23552 3.24469 -6.78976 -1.17272 38 35 35 0.379379 24 3078 23 3156
19775 0.133274 -6.20225 -1.51534 34 40 45 1.04378 17 5643 22 7124 18 5991 16 5396 19 6803 15 5801
27292 1.07213 -7.6125 7.38593 44 44 43 1.99074 6 6173 7 6153 4 4818 2 6350 3 6425 16 3406 1 6544
23553 6.2959 -1.03643 -1.10047 170 159 138 0.37209 25 2920 26 3925 23 3176
8380 9.49961 -8.5475 3.71941 20 27 31 0.493523 6 3620 3 752
19776 -2.7999 -7.85553 5.14442 223 225 234 0.998042 18 6254 16 5428
27293 1.49344 -7.48906 2.86381 100 98 93 0.642483 4 4808 5 6418 6 6168 7 6151 18 4058 8 5072 11 4842 19 5149 17 3806 2 4936 3 6405 9 4768 10 5424 12 4911 13 6308 16 3627 22 5461 2 6328
23554 6.32637 -1.28765 -1.05557 144 136 124 0.642437 25 2801 23 3177
8381 11.5323 -10.5946 6.70963 25 28 24 1.77368 5 777 10 122 3 788 6 472
19777 -3.53657 -8.01833 4.49686 199 208 232 0.565884 18 6265 16 5439
4604 3.29379 -7.06248 2.83756 109 128 160 2.92602 13 7561 17 5712 22 8047 25 9986
27294 1.85223 -7.1551 -1.56378 49 48 55 0.776696 5 6387 11 4815 12 4856 18 3529 3 6396 2 6297 19 1937 1 6464
23555 6.32334 -1.2598 -1.12437 124 116 103 0.0784658 25 2924 26 3934 23 3182
19778 -3.33091 -7.76429 4.11703 191 206 233 1.40154 17 5696 16 5443
27295 1.96153 -7.06836 -1.56295 59 58 62 1.38799 5 6385 17 4300 3 6378 8 5067 12 5608 13 6290 14 6629 16 4117 18 3526 19 1936 20 2233 21 4845 22 4845 1 6463
23556 6.33959 -1.37096 -1.16448 138 131 114 0.19459 26 3936 23 3184
8383 11.0244 -9.13248 6.87907 34 39 33 0.945269 5 3875 3 794
19779 -1.73498 -7.28812 0.41067 115 116 113 2.19896 17 5551 18 5898 16 5498
27296 2.84316 -6.66094 0.268655 136 133 122 1.02931 19 3938 24 8492 23 9111 3 6304 4 5494 5 6283 8 4963 9 4617 12 5542 13 6229 14 6564 15 4870 16 4490 17 4052 18 4297 20 4225 21 5851 25 8280 1 7346 2 6163 2 7121 4 4708
23557 6.38461 -1.71673 -1.20667 124 115 95 0.0683079 25 2929 26 3943 23 3187
8384 11.1701 -9.88486 7.13932 24 30 28 0.0719981 6 757 3 797
19780 3.73315 -6.76378 -0.0274053 51 38 22 1.38472 21 7607 23 9929 16 5516 20 7601
4607 3.52472 -6.54209 6.93739 50 50 42 1.07856 2 8329 7 8066 10 7225 1 8662
27297 3.13958 -6.87785 2.3106 75 81 79 0.549354 5 6254 6 6060 7 6038 9 4572 13 6206 8 4921 21 5437 4 4686 10 5241 16 4328 17 4565 18 4056 25 8888 2 7099 3 6273 12 5524 14 6545 15 4715 20 5492 23 9448 1 7351 2 6134 22 6632
23558 6.45429 -2.32164 -1.12169 156 146 125 0.21323 25 2802 26 3702 23 3192
8385 6.90967 -4.50782 3.46147 53 60 45 1.46308 21 178 3 801
19781 1.14517 -7.33263 -1.64462 31 36 40 1.87111 17 5641 18 5990 11 6518 12 6796 5 8223
27298 5.75475 -6.97722 2.98454 88 103 123 1.15201 15 3864 21 547 2 5918 3 6066 4 4512 5 6002 6 5823 7 6720 8 5529 9 5215 10 5945 11 4406 12 4490 13 5171 14 3966 16 4294 17 4522 18 4842 19 3391 20 667 22 3712 23 391 25 6536 1 6093 25 4199
23559 6.47127 -2.47163 -1.12936 151 137 117 0.476324 24 5604 25 2805 26 3704 23 3196
8386 12.2214 -9.90576 8.84179 33 38 31 1.03671 2 552 4 142 3 810 5 537
19782 1.45287 -6.5218 -1.645 43 46 54 1.39864 1 8715 19 7647
27299 6.44428 -7.5328 -0.0645343 74 90 101 1.4128 7 6682 8 5480 9 5105 3 5968 4 5228 5 6983 6 6713 10 5861 12 5203 2 5788 25 5213 1 5970
23560 6.49942 -2.69207 -1.17878 110 103 87 0.0620734 26 3708 23 3200
8387 13.4553 -11.3323 10.9432 49 51 55 0.826614 14 706 3 822
19783 -5.59377 -11.9911 7.56581 215 219 231 0.0269083 15 6025 18 6074
4610 3.79897 -6.77838 12.6986 166 171 187 0.531356 2 8333 3 8455 4 6530 5 8442 6 8146 7 8054 8 6749 9 6402 1 8665
27300 16.0853 -22.9732 2.2345 52 61 65 0.890566 4 4215 7 5207 12 4257 3 5892 5 5660 10 4625 2 4181
23561 6.51855 -2.8483 -1.2112 113 105 91 0.559136 25 2807 26 3718 23 3203
8388 12.453 -9.56083 10.2428 15 18 17 1.54295 4 353 5 560 6 535 3 835
19784 -3.48605 -7.97667 3.23601 204 207 223 0.648945 18 6281 16 5619
27301 11.2947 -11.2466 8.44557 32 39 31 2.09748 4 4326 10 5789 15 5180 2 5733 3 5836 11 5114 12 5222 13 5019 17 5033 1 5929 5 5774
23562 6.70173 -4.40551 -1.35626 91 87 79 0.382483 24 7113 27 5587 23 3232
8389 6.30005 -3.50087 4.16003 26 33 41 3.2211 9 694 3 854
27302 11.0787 -11.0922 1.00193 24 31 23 2.50856 5 6635 19 1377 25 1502 26 2063 22 1601 1 3740
23563 5.19056 -6.68391 -1.51 110 115 113 2.6355 24 3068 26 9901 23 3251
8390 15.3694 -10.1585 19.737 88 86 76 1.56996 5 897 6 3733 7 866
19786 -3.85224 -7.59945 -0.551475 98 100 100 0.632349 17 5910 18 6321 16 5654
27303 -0.28886 -7.20296 0.0192443 122 123 119 1.01667 5 5339 6 3195 8 2601 12 4082 4 3999 3 5386 11 4028 17 1437 18 1452
23564 3.85792 -6.74246 -1.46456 73 63 62 0.151313 24 3202 23 3257
19787 7.3257 -8.50361 0.94773 178 177 185 1.89865 18 6527 16 5787
4614 2.93073 -6.63846 3.52446 132 127 113 1.54403 4 6538 7 8078 9 6412 1 8670
27304 0.382237 -7.13364 -1.25613 20 21 20 1.14722 8 5219 14 6762 17 3290 6 5103 7 5047 5 5279 11 5006 12 4024 3 5314 16 1826 18 1961 20 2166 2 6483 4 4967
23565 3.22778 -6.78475 -1.23532 20 19 19 0.661185 24 3079 23 3263
8392 7.03397 -7.79046 -1.55795 60 44 34 0.935925 14 3088 3 932 4 4049
19788 -2.03298 -7.38847 4.64928 128 127 124 1.18913 17 6075 18 6499 16 5822
4615 2.19859 -2.71679 1.84859 201 192 170 2.68884 18 511 1 8671
27305 0.622756 -7.0971 1.50996 91 95 95 1.17836 15 1170 4 2198 15 2877 2 5122 3 5218 5 5224 6 5053 8 4106 9 3847 12 3986 13 5699 14 6002 15 1171 18 2970 22 3934 1 5261 4 2199 4 3894 11 3916 17 2745 20 3832
23566 6.22061 -0.412424 -1.12609 149 140 121 0.506514 25 5892 23 3289 26 3919
8393 17.2358 -22.3675 2.99483 18 21 24 2.52568 4 28 15 3007 3 945
19789 -2.03312 -7.3925 4.65236 126 126 122 0.381348 18 6500 16 5823
27306 0.71674 -7.34905 0.292465 64 69 69 0.467277 8 5160 9 4843 16 2757 21 1196 7 6219 13 4494 15 1431 2 5059 3 5209 5 5213 6 6245 10 5530 11 4924 12 3914 17 2985 18 3143
23567 6.22899 -0.457768 -1.17723 145 135 116 0.485617 25 3174 23 3292 26 4142
8394 17.9803 -22.8903 3.35469 52 65 77 3.56163 15 1342 3 946
19790 -0.227483 -3.28013 -0.92121 50 61 75 1.85935 17 6154 18 6567
4617 3.32885 -6.5608 6.89832 49 49 43 1.92165 2 8330 3 8451 6 8142 8 6755 9 6409 10 7226 11 6475 12 6776 13 7408 15 6001 17 5821 18 6223 1 8673 16 5579
27307 0.89328 -8.19951 2.84598 36 37 36 0.413071 10 4295 11 3765 4 3776 18 2882 2 5017 14 5953 15 2775 1 6585
23568 6.22899 -0.457768 -1.17723 145 135 116 0.485617 25 3175 23 3293 26 4143
27308 1.82069 -7.21258 -1.26237 117 116 113 2.44102 5 5055 6 4872 9 3613 11 3682 13 5557 4 3735 10 4192 21 6272 3 5047 12 4884 14 6637 18 1953 1 6502 15 5054 16 4681 19 4317 20 4652 1 7437 22 6223 20 6127
23569 6.23423 -0.475218 -1.20229 105 99 88 0.427197 25 5977 23 3294 26 4144
8396 10.9555 -11.7888 2.35505 54 53 41 0.827728 7 3307 3 954
19792 -5.1219 -7.7884 6.48197 182 177 169 1.42902 17 6187 18 6598 16 5931
27309 3.2811 -6.84605 12.4503 187 193 211 0.249895 8 1897 13 4173 2 4757 3 4850 4 1786 5 4884 6 2520 7 2364 9 1714 12 3651 1 4865
23570 6.23953 -0.541941 -1.17734 163 152 131 0.371435 25 5897 23 3295 26 4146
8397 13.2586 -14.8855 5.15871 39 53 62 2.88317 4 280 10 81 3 966
19793 -4.85263 -7.5425 3.21967 181 175 168 1.01131 17 6192 16 5934
4620 3.92512 -7.48211 15.9284 48 61 84 1.08239 5 8444 1 8676
27310 3.139 -6.54324 3.46159 147 148 144 0.377924 12 4697 15 3816 16 3564 18 2738 3 4827 11 4663 5 4860 6 4659 7 4607 8 3803 9 3463 10 4016
23571 6.24319 -0.577659 -1.12068 151 145 129 0.404872 25 5895 23 3296 26 3922
19794 -0.806772 -7.51271 0.0572079 114 114 111 1.99492 17 6239 18 6655 16 5977
4621 2.53872 -6.7012 -1.51817 81 83 84 1.93156 2 8347 3 8476 11 6637 15 5992 16 5567 17 5808 19 7312 20 7689 22 7938 21 8142
27311 3.18977 -6.54131 3.66069 147 142 132 0.751832 8 3753 9 3468 10 3969 2 4690 3 4784 1 2362
23572 6.25533 -0.685021 -1.20298 114 106 94 0.330237 25 5900 26 4154 23 3297
19795 11.3545 -10.1731 9.76778 32 36 29 0.35662 18 66 17 52
27312 4.23956 -6.46554 3.4442 136 138 135 0.882649 19 149 21 64 3 4629 11 3312 12 3365 13 3920 14 4110 15 2625 16 3539 17 3713 18 3965 20 299 22 81 2 4519 8 3538
23573 6.25489 -0.710131 -1.16383 108 103 92 0.830277 25 5898 26 3923 23 3298
8400 13.3006 -15.1597 5.1912 219 243 254 2.01401 4 2557 10 86 3 970
19796 11.3034 -10.4387 8.76077 137 181 226 0.550743 18 2443 17 221
4623 2.83372 -6.66952 6.24361 213 199 174 1.06225 2 8349 3 8470 4 6540 5 8462 6 8161 7 8080 8 6773 9 6413 10 7247 11 6645 12 6780 13 7575 14 7962 15 6007 17 5667 18 6049 1 8679 16 5587
27313 3.8798 -6.47464 0.669079 62 61 55 1.79719 15 5715 20 1409 22 1506 3 4620 5 8135 17 5539 21 7545 22 7461 23 9585 25 9042 12 3353 17 2870 21 1184 24 6482 24 9198 2 4546 6 4504 10 3811 11 3303 13 5256 14 4098 16 5291 19 1173 23 5051
23574 6.28087 -0.899013 -1.21989 166 156 139 0.496438 25 5905 26 4167 23 3306
8401 12.6888 -14.0423 5.4467 220 242 254 2.18948 4 2558 5 739 7 3493 10 88 15 2762 17 2610
27315 5.86401 -7.03285 -1.4979 54 60 69 0.941127 6 1624 14 5136 4 4363 11 4185 2 4171 3 4296 1 4289 12 4248 13 4902
23576 6.31038 -1.13383 -1.17894 107 100 87 0.567822 25 5825 26 3929 23 3311
19800 6.70949 -7.76392 5.32419 46 51 55 0.122597 18 434 17 402
27317 7.07669 -7.99713 -0.905013 79 81 82 2.05923 7 4013 8 4451 22 2155 3 4046 5 4238 6 3876 10 4619 13 4811 19 1740 23 2905 24 2748 25 2443 26 7211 2 3901
23578 6.31094 -1.15416 -1.20218 151 143 127 0.155535 25 3061 26 3931 23 3315
8405 11.2667 -11.316 5.77594 11 14 13 0.940957 4 305 10 346 3 994
19801 11.8281 -13.1656 8.3746 44 55 63 1.44501 23 179 17 439 21 222
4628 2.85273 -6.95743 12.5369 193 195 205 0.81079 2 8356 3 8473 5 8465 6 7881 7 7811 1 8684 4 6303
27318 6.99526 -7.94456 -1.5608 24 20 16 1.21618 7 1275 14 3248 13 4723 4 2521 6 3873 2 963 3 4039 8 2806 10 2938
23579 6.30498 -1.10868 -1.22235 159 149 134 0.106361 25 3059 26 3927 23 3316
19802 11.8431 -13.5147 8.64738 166 223 255 0.176725 18 485 17 446
4629 2.63171 -6.76333 6.0806 214 201 174 1.48778 2 8350 3 8641 4 6547 5 8470 6 8162 7 8081 8 6771 10 7248 11 6643 12 6782 13 7577 14 7960 15 6008 16 5591 17 5831 18 6051 1 8685
27319 0.138071 -6.29369 -1.53522 19 22 25 1.51312 12 4146 16 2018 3 3352 11 4072 17 2112 2 3267 14 4859 1 3320 13 4680
23580 6.30498 -1.10868 -1.22235 159 149 134 0.106361 25 3060 26 3928 23 3317
8407 11.3075 -11.4694 5.91604 14 18 17 0.559056 12 73 3 998
19803 12.3197 -13.6411 8.31845 160 196 250 0.192492 18 476 17 475
4630 2.63171 -6.76333 6.0806 214 201 174 1.48778 2 8351 3 8642 4 6548 5 8471 6 8163 7 8082 8 6772 10 7249 11 6644 12 6783 13 7578 14 7961 15 6009 16 5592 17 5832 18 6052 1 8686
27320 0.651267 -7.06767 -1.64677 9 11 11 0.872633 5 3231 10 2658 11 3933 16 2008 9 2231 8 2492 2 3110 3 3153 13 4561 14 4736 1 3149 12 3994 15 2134
23581 6.31004 -1.13656 -1.30512 108 101 88 0.37597 25 3065 26 4173 23 3318
19804 -4.54602 -7.6584 5.53629 186 181 173 0.835377 18 2677 17 499
4631 2.62257 -7.0487 12.8007 188 189 201 2.38097 2 8103 3 8474 6 7511 7 7455 1 8689 2 8360
27321 0.743592 -7.55647 -1.44797 39 47 54 0.67521 10 5548 13 2657 18 3476 7 4967 14 2766 3 3089 12 3951
23582 6.35617 -1.50855 -1.22417 194 183 165 0.139374 25 2928 26 3939 23 3320
8409 11.5131 -11.7126 6.32748 14 19 19 1.4625 12 81 15 2619 3 1007
19805 10.9936 -11.3043 5.54204 30 37 34 0.0941396 18 632 17 617
4632 2.50349 -6.8054 13.2606 63 64 64 2.27336 3 8206 1 8690 13 7167
27322 0.893551 -7.36232 2.83246 36 35 29 0.699092 5 3040 9 2077 15 898 10 2416 11 2128 12 2149 16 589 17 827 3 2984
23583 6.3647 -1.6043 -1.20581 139 130 112 0.205619 25 2930 26 3940 23 3322
8410 11.2179 -10.5363 6.45748 26 33 26 1.42939 7 726 13 381 3 1009
19806 11.0646 -11.9998 5.69097 34 50 70 0.589271 18 692 17 626
4633 2.85987 -7.0162 14.2054 70 76 83 2.18086 2 8357 3 8204 5 8186 6 7512 4 5970
27323 0.725031 -7.57158 1.5626 59 65 66 0.945212 6 4994 7 6224 8 5140 10 5506 3 2977 4 3841 5 5178 9 4849 11 3848 12 3921 15 1168 16 916 17 2746 18 2967 2 2969
23584 6.35869 -1.54734 -1.32176 159 153 146 0.203718 25 3075 26 4183 23 3324
19807 -3.47538 -7.85704 4.30964 146 160 187 0.137435 18 729 17 663
4634 3.69928 -12.6672 26.8594 140 176 231 1.86466 4 6295 7 7787
27324 0.922315 -8.16051 1.59679 40 43 42 1.12851 8 2298 17 2741 3 2893 5 5130 9 2004 10 4289 11 3754 12 3872 15 1227 16 914 18 1055 1 2971 4 3811
27325 1.74718 -7.21961 -1.5965 44 47 49 0.484549 5 2814 11 1930 6 2775 10 2276 12 3751 13 4331 14 4483 15 2118 16 1989 17 2071 2 4889 3 2785
23586 6.40714 -1.90536 -1.38902 126 116 97 0.0824931 25 3081 26 4193 23 3335
8413 11.5011 -10.599 6.87718 14 18 17 1.62219 13 389 3 1022 26 90
19809 10.8792 -12.1541 5.43684 39 50 62 1.94536 4 673 18 701 17 685 9 61
27326 2.59773 -6.75402 0.705825 72 72 69 0.747779 4 3609 15 1309 3 2632 5 2658 6 4764 8 3854 9 1753 10 4060 11 3589 12 1748 13 4193 14 2237 16 1169 17 2875 18 1282 2 4779 22 1405
23587 6.43438 -2.12439 -1.45286 114 107 95 0.539405 25 3086 26 4202 23 3337
19810 12.4268 -13.7834 5.48395 197 238 255 0.424585 18 809 17 750
27327 3.64926 -6.46866 3.80638 56 57 57 0.266088 5 2442 6 2355 7 4492 14 1985 18 588 8 3696 9 3369 17 2504 3 2353
23588 6.21635 -0.334643 -1.19716 115 108 98 0.408705 25 5969 23 3396 26 4132
19811 6.69119 -7.74369 2.91536 41 45 48 0.464491 18 817 17 770
27328 3.57431 -6.76349 0.282871 45 28 22 0.856189 9 3314 10 3870 13 4008 2 2236 3 2332 5 2342 6 2336 8 1685 11 3376 12 3429 14 4192 15 3063 16 2745 17 2977 18 1359 21 1462 23 5153 24 6578 25 1525 1 2128 4 1557 7 2223 22 1617
23589 6.23336 -0.505101 -1.22729 119 114 105 0.328058 25 5979 23 3407 26 4145
19812 -3.46072 -7.79948 3.11273 59 63 72 0.415461 18 903 17 865
27329 3.39736 -6.7822 -1.18379 39 27 25 1.20327 4 1537 8 1756 9 1422 14 4174 3 2307 5 2322 10 3851 11 3348 12 3457 13 3990 16 3187 17 3280 23 3155 24 5658 25 2728 2 2206
23590 6.23698 -0.527217 -1.22134 165 153 138 0.144175 25 5983 23 3408 26 4151
8417 8.34248 -6.44425 5.28304 24 31 31 3.53765 9 2528 3 1041
19813 3.25673 -3.19552 0.820545 164 180 204 2.63128 20 981 17 884
4640 2.3239 -6.90134 13.2683 55 57 56 0.691932 2 8361 5 8197 6 7519 11 6285 13 7171 14 7571 1 8699 4 5975
27330 3.46211 -6.50332 -1.53638 32 33 36 1.68695 16 3295 17 3415 2 2190 3 2174 6 4535 10 5168 11 4520 14 1800 15 3486 18 3595 1 2086
23591 6.23698 -0.527217 -1.22134 165 153 138 0.144175 25 5984 23 3409 26 4150
8418 12.3935 -11.023 9.29436 28 37 40 1.55535 5 5607 3 1043
19814 2.93028 -6.60058 1.66232 160 160 157 2.01974 23 517 17 972
