# 3D point list with one line of data per point:
#   POINT3D_ID, X, Y, Z, R, G, B, ERROR, TRACK[] as (IMAGE_ID, POINT2D_IDX)
# Number of points: 649, mean track length: 3.76474
5775 -4.87112 -7.2006 -1.42205 46 43 26 1.02707 6 2438 5 2560
2036 -6.38232 -5.63165 0.839618 120 115 82 0.320815 3 5890 4 5302 5 5186 6 5023 7 4658 1 6317
5774 -4.88261 -7.20952 -1.10719 52 46 30 0.436612 7 2369 5 2559
2035 -6.26527 -5.78836 1.1486 118 117 95 0.401446 2 6558 3 5904 4 5301 5 5206 6 5042 1 6316 7 4654
5773 -4.03142 -6.71006 4.58901 53 54 51 0.269001 6 2455 7 4369 5 2510
5772 -5.22404 -7.12327 -0.888381 39 36 24 0.584309 6 2393 5 2496
2033 -6.3818 -5.64156 3.63445 104 101 78 1.11709 3 6475 4 5291 1 6313 6 5018
5771 -5.23678 -7.13462 -0.567555 15 15 11 0.243206 6 2391 7 2304 5 2494
2032 -5.24616 -4.41595 5.93596 113 107 83 0.288085 3 5881 7 4975 1 6312 6 5418
5770 -2.00752 -3.78684 0.0373897 75 73 59 2.0706 6 5122 5 2483
2031 -5.70133 -5.06758 -1.96529 93 61 26 0.485322 2 4872 3 4051 1 6307 4 3506
5769 -4.21927 -6.50642 4.53085 89 88 74 0.274658 6 2412 7 2248 5 2445
5767 -5.0892 -6.71562 -1.96385 47 35 20 0.349139 6 2357 7 4337 5 2436
2028 -6.37958 -5.65291 -1.27367 19 19 15 0.131232 2 6546 3 5892 4 5309 5 5192 7 4637 1 6303 6 5029
5766 -5.39326 -6.97265 -1.00369 16 16 11 0.12946 6 2351 7 2228 5 2429
5765 -5.36239 -7.01268 1.27926 121 119 102 0.596176 7 2212 5 2408
2026 -6.37321 -5.65624 0.307019 28 28 25 0.0997269 2 6544 3 5909 4 5307 5 5190 6 5027 7 4664 1 6301
5764 -5.29076 -7.02569 1.33288 121 119 101 0.541094 6 2379 5 2407
2025 -6.62992 -5.43457 2.23056 54 54 51 0.0670411 2 6523 3 5869 1 6299
5763 -5.35487 -6.95105 1.72879 125 122 106 1.0663 6 2302 7 2197 5 2400
2024 -6.68441 -5.39106 2.23785 65 66 63 0.0716863 2 6522 3 5868 1 6298
5762 -5.25077 -7.14493 2.2681 79 78 69 0.31078 6 2376 7 2274 5 2397
2023 -6.63273 -5.31521 3.41617 23 21 14 0.0807237 2 6520 3 5863 4 5262 5 5163 6 4997 7 4605 1 6297
5761 -4.43328 -5.79137 -1.96547 89 70 39 0.161417 6 2236 7 2010 5 2383
2022 -6.44529 -5.28527 4.09099 95 93 74 0.534926 2 6519 3 5882 4 5279 1 6296
5760 -5.51204 -6.86661 -1.11346 70 65 42 0.215197 7 2230 5 2375
2021 -5.79247 -4.26324 5.62889 61 56 38 0.48576 3 5830 5 2897 7 2580 1 6295 6 2855
5758 -5.39836 -6.94802 1.38296 142 140 121 0.258676 6 2335 7 2201 5 2361
5757 -5.52348 -6.86684 1.71749 54 54 54 0.0907071 6 2304 5 2320
5756 -7.55105 -8.35743 2.47133 53 53 53 0.834715 3 2249 6 2178
2017 -6.59356 -5.36068 -1.26636 19 19 16 0.110675 2 6529 3 5874 4 5274 5 5177 6 4987 7 4619 1 6291 6 5413
5755 -5.38782 -6.9841 2.82383 40 38 29 0.0878947 6 2271 7 2194 5 2259
2016 -7.91284 -6.46925 0.520474 26 27 22 0.267027 2 6528 6 5028 1 6290
5754 -5.38782 -6.9841 2.82383 40 38 29 0.0878947 6 2270 7 2193 5 2258
2015 -6.59198 -5.36283 0.305954 26 26 22 0.0999334 2 6527 3 5872 4 5272 5 5175 6 5010 7 4617 1 6289
5750 -4.4497 -6.21742 5.54303 45 44 35 0.421067 6 2242 7 2015 5 2211
2011 -6.78753 -5.14588 2.21195 38 39 36 0.6723 2 6504 3 5837 5 5143 7 4979 1 6284 4 5243
5749 -4.89863 -6.00782 0.619357 26 26 21 1.66784 1 3040 7 1995
2010 -6.63044 -5.27693 2.71593 24 22 17 0.127349 2 6521 3 5864 4 5266 5 5166 6 5002 1 6283
5747 -5.6276 -6.74845 2.93059 157 174 242 0.0562032 6 2062 5 2046
5746 -5.63188 -6.70894 2.98451 49 50 47 0.0311062 4 2051 5 2043
5745 -5.69472 -6.64746 3.0251 55 54 49 0.273125 6 2034 7 1880 5 2029
2006 -6.58341 -5.0775 3.93165 95 92 73 0.723845 3 5862 4 5261 6 5407 1 6279 5 5162 5 5579
5744 -5.73639 -6.5917 3.0543 154 173 242 0.0370959 6 1825 5 2018
2005 -6.60079 -5.35733 -1.77415 14 14 11 0.146035 2 6532 3 5877 4 5277 7 4622 1 6277
5743 -5.62912 -6.75792 3.29047 41 40 37 0.263943 6 2013 7 2033 5 2000
2004 -6.60086 -5.35739 -1.77413 14 15 12 0.136415 2 6531 3 5876 4 5276 5 5179 7 4621 1 6276
5742 -5.66255 -6.69255 3.28367 38 39 36 0.180476 6 2007 7 1841 5 1993
2003 -6.75635 -5.17319 -1.36955 48 42 24 0.181267 3 5856 4 5259 5 5158 7 4597 1 6275
5741 -5.55217 -5.4108 2.8023 162 182 242 0.78372 2 2010 6 923
2002 -6.75635 -5.17319 -1.36955 48 42 24 0.181267 3 5857 4 5260 5 5159 7 4596 1 6274
5740 -5.51543 -6.57393 4.02666 53 49 37 0.129202 7 1792 5 1973
2001 -6.80847 -5.07242 -0.212307 24 24 20 0.109257 3 5851 4 5254 5 5135 6 4971 7 4591 1 6273 2 6515
5738 -11.2619 -10.6281 3.38558 67 66 64 0.333648 6 1944 5 1926
1999 -6.7582 -5.1738 0.201227 76 68 43 0.214119 2 6513 3 5849 4 5252 5 5156 7 4588 1 6271
5737 -9.00493 -8.49009 2.71032 58 58 59 0.213296 1 1863 6 1631
1998 -6.7582 -5.1738 0.201227 76 68 43 0.214119 2 6512 3 5848 4 5251 5 5155 7 4587 1 6270
5735 -5.27137 -5.81995 1.82584 55 56 52 2.36859 3 2178 7 1454
1996 -6.80861 -5.0723 0.308016 24 24 21 0.0895098 2 6510 3 5846 4 5249 5 5153 6 4968 7 4585 1 6268
5734 -24.3003 -19.6107 14.7041 45 47 44 1.41464 4 1301 7 1884
1995 -6.8084 -5.07087 0.810369 26 26 23 0.130179 2 6509 3 5844 4 5247 5 5151 6 4967 7 2636 1 6267
5733 -7.60671 -7.9783 4.34514 50 50 46 0.348163 6 1816 5 1786
1994 -6.8084 -5.07087 0.810369 26 26 23 0.130179 2 6508 3 5843 4 5246 5 5150 6 4966 7 2635 1 6266
5731 -5.89201 -6.39377 3.12259 147 166 238 0.084905 7 1619 5 1754
1992 -6.83723 -5.03786 2.34415 77 71 49 0.320023 2 6503 4 5241 5 5141 6 4982 7 4578 1 6264
5730 -5.88716 -6.39009 3.37673 143 162 232 0.097178 6 1715 7 1575 5 1702
1991 -6.85793 -4.91401 2.59704 90 87 65 1.97663 3 5835 4 5239 5 214 6 172 1 6263
5729 -5.87952 -6.39177 3.47233 36 37 34 0.0522293 6 1697 7 1560 5 1694
1990 -6.83864 -5.02733 2.77931 118 117 95 0.20357 2 6498 3 5834 1 6261
5728 -5.88876 -6.39153 3.50701 137 160 232 0.14726 6 1696 5 1690 7 1557
1989 -6.78448 -4.86267 3.5925 71 67 46 0.289195 2 6484 3 5831 4 3003 5 2885 6 2864 1 6260 7 209
5727 -5.88876 -6.39153 3.50701 137 160 232 0.14726 6 1695 5 1689 7 1556
1988 -6.72441 -4.77293 3.63791 134 131 113 0.281921 2 6483 3 6384 4 5726 1 6259
5726 -5.8725 -6.34312 3.54161 46 45 41 0.299192 6 1405 7 3537 5 1682
1987 -6.71254 -4.76489 3.62929 129 127 109 0.314648 2 6482 3 6383 4 5725 5 6058 6 5841 7 5314 1 6258
5725 -5.87712 -6.34859 3.59824 35 35 33 0.701602 6 1404 7 3533 5 1681
1986 -6.80825 -5.0712 -1.26007 20 21 17 0.13393 2 6491 3 5855 4 5258 5 5139 6 4975 7 4595 1 6257
5724 -5.93652 -6.24859 -1.77447 18 17 12 0.155643 6 1370 7 3524 5 1671
1985 -6.80825 -5.0712 -1.26007 20 21 17 0.13393 2 6490 3 5854 4 5257 5 5138 6 4974 7 4594 1 6256
5723 -5.93734 -6.24508 0.80409 34 31 23 0.227472 6 1668 7 1523 5 1662
1984 -6.80747 -5.07085 -0.735216 25 24 20 0.123886 2 6517 3 5853 4 5256 5 5137 6 4973 7 4593 1 6255
5722 -5.9759 -6.29098 1.43294 56 55 52 0.00977692 6 1648 5 1646
1983 -6.80747 -5.07085 -0.735216 25 24 20 0.123886 2 6516 3 5852 4 5255 5 5136 6 4972 7 4592 1 6254
5721 -7.9654 -7.9851 2.89407 62 62 62 0.804872 4 1639 6 1878
1982 -6.93474 -4.89382 -0.569405 23 19 14 0.662357 2 7039 3 5824 4 5229 5 2894 6 136 1 6253
5720 -6.07609 -6.14124 2.89584 57 58 53 0.0434032 6 1334 5 1545
1981 -7.00283 -4.84715 0.863421 70 64 43 0.466044 2 6486 3 5820 4 5225 5 5133 6 4954 1 6252
5719 -5.95536 -6.28982 2.95726 54 53 48 0.272685 6 1528 5 1540 7 1431
5718 -6.0044 -6.23808 2.99302 157 175 242 0.0168931 6 1506 5 1524
1979 -6.98068 -4.55536 2.45811 57 54 36 0.434938 2 6473 4 5216 5 5120 6 4953 7 4559 1 6250 3 5805
5717 -4.12912 -4.78493 2.0908 44 45 43 0.39401 6 1203 5 1468
1978 -6.24125 -4.14323 3.32071 139 137 122 0.906796 2 6471 3 6356 5 6049 1 6248
5715 -4.97921 -5.51181 4.51898 120 118 98 0.319699 6 1384 7 1280 5 1418
1976 -6.17636 -3.88081 4.57115 47 43 29 0.147095 2 6468 3 5800 4 2939 5 2843 6 2825 7 2546 1 6244
5714 -4.96903 -5.50108 4.53316 115 114 93 0.166394 6 1381 5 1415 7 1277
1975 -6.22788 -3.7803 4.61262 72 67 42 0.644358 2 7022 3 5799 4 5194 5 5098 6 5376 1 6243 5 5533
5713 -6.06466 -6.06532 2.21973 123 119 99 0.324333 6 1339 7 1447 5 1374
5712 -5.62753 -6.74386 2.96298 51 51 51 0.0146016 6 2060 7 2050
1973 -6.97843 -4.88614 -1.9472 17 17 12 0.427359 2 4207 3 3463 4 2983 5 2874 6 147 1 6239
5711 -6.11809 -6.09239 2.96323 58 57 56 0.0377621 6 1310 5 1340
1972 -7.01521 -4.90531 -1.89826 87 83 69 0.955763 2 4204 3 3462 4 346 1 6238 6 146
5710 -6.0146 -5.935 4.26527 116 113 94 0.0383309 7 1060 5 1205
1971 -7.00371 -4.8974 -1.85121 65 61 42 1.1175 2 6478 3 5813 4 5230 5 5124 1 6237 6 145
5707 -6.31241 -5.83699 3.44705 142 165 232 0.183755 7 820 5 952
1968 -6.82942 -4.56655 -0.577725 66 77 46 0.342664 2 6475 3 5809 4 5217 5 5107 6 4942 1 6234
5705 -7.49146 -5.97705 -2.26278 78 56 27 2.81806 2 1017 7 769
1966 -6.25441 -3.78923 3.99417 126 122 93 0.533378 2 6462 3 5789 4 5200 5 5105 6 4936 7 4545 1 6232
5704 -5.72428 -6.62426 1.52897 64 64 64 0.130267 6 1946 7 1970
1965 -6.89783 -4.54722 -0.532705 83 75 58 0.897938 2 6474 3 5806 4 2943 1 6229
5703 -6.45726 -5.63092 2.86258 165 181 249 0.194561 6 713 5 768
1964 -6.16977 -3.52279 2.01228 129 124 93 0.311895 2 6453 3 5781 4 5190 1 6227
5702 -6.56798 -5.48017 3.08869 40 41 34 0.0360241 7 554 5 688
5701 -4.50611 -5.58682 1.16185 62 62 60 2.52288 6 1922 7 1744
1962 -5.992 -3.39903 2.00968 131 126 95 0.235612 3 5780 4 5189 5 5079 7 4526 1 6225
5698 -6.64608 -5.26288 3.44999 80 74 53 0.383133 6 337 7 268 5 380
5697 -5.64761 -4.57493 4.53386 112 110 86 0.218282 6 203 5 363
5696 -6.77506 -5.12328 1.39872 59 58 55 0.451478 6 2988 5 327
1957 -5.24991 -2.80564 1.15641 146 142 113 0.342607 3 5745 1 6215
5695 -6.01765 -6.15095 1.52385 57 56 54 0.145531 6 1344 7 1489
1956 -5.06399 -2.67438 1.49156 151 147 120 0.537434 2 6435 3 5742 4 5152 1 6213
5694 -6.78937 -5.12925 1.6344 54 54 52 0.362102 6 266 7 2623 5 302
1955 -4.99473 -2.62052 1.4962 148 144 115 0.106159 2 6434 3 5741 1 6212
5693 -6.7866 -5.12928 1.65733 58 58 55 0.567243 6 265 7 2622 5 300
5691 -6.79103 -5.12991 2.01927 47 48 44 0.415856 6 222 7 2612 5 282
1952 -5.5927 -3.06004 0.112426 122 118 85 0.851786 2 6448 3 5756 1 6203
5690 -6.79085 -5.12985 1.7863 55 56 53 0.33392 6 240 7 2618 5 279
1951 -5.58376 -3.05552 0.112015 120 116 83 1.28695 2 6447 3 5755 1 6202 4 5174
5689 -6.79752 -5.13232 1.89397 49 50 46 0.613151 6 236 7 2615 5 277
5688 -6.79607 -5.13421 2.04898 49 50 48 0.0104845 6 221 5 270
5687 -6.78586 -5.12918 2.14639 47 47 45 0.532661 6 217 7 2609 5 265
1948 -5.80887 -3.20139 0.47688 115 110 77 2.13222 3 5766 7 2498 1 6199
5686 -5.86919 -4.38276 4.29734 157 154 138 0.0838658 6 169 5 250
1947 -5.80882 -3.20113 0.476333 115 111 77 1.89316 3 5765 4 5172 7 2497 1 6198
5685 -6.64068 -4.28071 2.89268 119 114 90 0.151676 6 2828 7 2572 5 187
5684 -6.94165 -4.54866 -1.93704 82 79 65 0.483977 6 93 7 2558 5 163
1945 -5.06948 -2.6781 0.817029 152 150 123 0.465793 2 6442 3 5750 1 6194
5683 -6.19268 -3.84176 4.57325 63 59 37 0.228343 6 103 7 152 5 152
5682 -6.54863 -3.85209 -0.793573 85 79 53 0.267526 6 53 7 122
1943 -5.30864 -2.83104 1.14909 177 174 154 1.76386 2 7004 4 2867 1 6192 3 423 6 4892 7 4508
5681 -6.09358 -3.70006 -0.615604 137 133 111 0.173411 6 4916 7 2527 5 127
1942 -4.79564 -2.47996 1.14932 152 148 122 1.11087 2 6437 3 5744 4 5154 1 6191 6 4878
5679 -5.05887 -2.65134 4.85618 97 95 78 0.869598 7 88 5 98
1940 -4.74238 -2.43284 1.15801 143 139 110 1.58278 2 6417 4 5136 1 6189 5 5048 6 4876
5678 -5.95537 -3.39105 -1.95807 92 89 72 0.303657 6 29 5 92
1939 -4.54384 -2.29438 1.49636 159 156 130 0.265363 2 6416 3 5736 1 6188
5677 -5.97735 -3.42218 -1.92765 85 81 63 0.56239 6 2779 7 2504 5 90
1938 -4.53572 -2.29086 1.49219 158 155 129 0.71692 2 6415 3 5735 1 6187 5 5493
5676 -5.37875 -2.97277 -0.713778 141 140 121 0.0423573 7 83 5 78
5675 -4.6348 -2.42189 -1.81894 97 95 77 0.401464 7 33 5 43
5672 -4.96727 -2.62003 2.74937 170 167 151 0.762658 7 6170 4 7057
1933 -2.75505 -1.24554 1.88334 56 51 36 0.750863 2 6396 4 5084 1 6180
5671 -3.62105 -7.06011 3.39687 97 94 80 0.51964 5 6844 4 7054 6 6751
1932 -2.76217 -1.23689 1.8745 75 69 49 0.423143 2 6397 4 5085 1 6179 3 5698
5669 -6.22772 -3.34259 -0.467711 158 156 135 0.994282 7 6108 5 6792
1930 -6.19846 -3.2476 -0.590024 108 106 76 0.743061 2 4129 4 2878 1 6174
5667 -4.34265 -6.44183 4.94996 112 106 85 0.774106 5 6808 7 6122 4 7011
1928 -3.29123 -1.54081 0.99561 136 128 87 0.963898 2 6972 3 5705 1 6168
5666 -6.07446 -4.20236 -1.97167 68 46 22 1.30781 5 6797 6 6696 7 6110 4 7002
1927 -2.87676 -1.23228 1.34932 149 144 121 0.291587 2 6379 3 5670 1 6167
5664 -3.94737 -8.42017 1.64284 165 187 249 0.751571 4 6961 6 6689
1925 -3.75725 -2.08744 -1.96385 92 85 72 0.712075 2 6427 3 5721 1 6148
5663 -6.15161 -3.4285 0.657283 168 165 142 1.57151 5 6732 6 6625 4 6931
5662 -3.53849 -7.3063 1.44304 91 84 57 0.918702 5 6728 6 6602 4 6917
1923 -3.28411 -1.53884 0.241996 133 125 84 0.395443 2 6383 3 5680 1 6144
5661 -3.93052 -6.61013 -1.92426 34 33 25 1.58806 5 6673 7 5950 4 6912 6 6514
1922 -2.89603 -1.20397 1.35171 95 87 57 0.503433 2 6377 3 5648 1 6140
5660 -5.84737 -6.32477 -1.49327 114 109 82 1.26213 5 6717 6 6582 4 6896
1921 -3.65474 -2.0269 -1.96798 76 70 59 0.710888 2 6429 3 5723 1 6134 4 2817
5659 -6.81648 -6.54342 4.10976 31 32 27 1.64757 5 6709 7 6059
1920 -3.6731 -2.02774 -1.9624 91 84 70 0.618617 2 6428 3 5720 1 6132
5658 -6.28661 -5.75373 0.570669 137 132 101 1.04428 6 6576 7 5997 4 6882
1919 -3.16858 -1.55757 -0.829525 112 105 74 0.406239 3 5660 1 6130 4 5080
5657 -6.97386 -4.91387 -1.97861 62 60 53 1.54195 5 6694 6 6634 7 6049
1918 -3.0692 -1.5792 -0.723157 84 77 50 1.81755 2 6410 3 6856 1 6129
5656 -6.10618 -3.41372 1.33807 166 164 139 1.51657 5 6688 6 6623 7 6037 4 6861
1917 -3.26009 -1.54339 -0.362098 117 108 73 0.670043 2 4070 3 5687 1 6126 4 2777
5655 -3.30174 -5.83207 5.78507 109 102 80 2.95218 5 6722 6 6592
1916 -3.28372 -1.53597 -0.233796 129 121 83 0.606831 2 4066 3 3311 1 6125
5654 -5.85549 -6.30466 0.93068 18 15 6 1.86703 5 6648 6 6400 7 5935 4 6824
1915 -3.28621 -1.53757 -0.0278018 130 123 85 0.256519 2 4065 3 5684 1 6124 4 5097
5653 -6.2963 -5.78273 0.580999 137 132 100 0.391483 5 6636 6 6488 4 6805
5652 -6.95546 -4.59394 -0.630576 103 96 67 1.20252 5 6626 7 5914 4 6797 6 6470
1913 -3.34228 -1.77169 -1.81619 113 106 88 0.819844 2 6411 3 3323 1 6116
5650 -6.30983 -3.49929 -0.128202 160 158 136 2.38214 5 6618 6 6460 4 6789
1911 -3.28501 -1.46786 -0.392574 120 116 90 0.228687 2 6938 3 5659 1 6111 3 6265
5649 -3.5652 -7.58432 1.17982 93 91 76 1.61348 5 6677 4 6764 6 6519
1910 -3.09451 -1.55811 -1.76356 111 105 82 0.219084 2 6358 3 5632 1 6106
5648 -3.55492 -7.3884 1.62216 170 165 146 0.754252 5 6676 6 6517 7 5955
1909 -3.16749 -1.55778 -1.60173 89 83 61 0.719241 2 4026 3 5629 1 6104
5646 -3.95582 -6.81631 -0.331603 75 69 41 1.60363 5 6578 7 5673 6 6150 6 6316
1907 -3.2179 -1.339 -0.334253 181 182 178 0.370231 2 6335 3 6240 1 6098
5645 -3.95574 -6.81638 -0.33192 75 68 41 1.89837 5 6579 7 5674 6 6151
1906 -3.09533 -1.2532 -0.111958 194 195 191 1.38419 2 6304 3 5590 1 6094
5644 -3.96318 -6.79123 3.47839 76 74 61 0.0678414 6 6303 7 5798
1905 -3.13754 -1.28472 0.000501267 193 194 191 0.436407 2 6330 3 5587 1 6092
5643 -3.96318 -6.79123 3.47839 76 74 61 0.0678414 6 6302 7 5797
1904 -3.13754 -1.28472 0.000501267 193 194 191 0.436407 2 6331 3 5586 1 6091
5642 -4.0103 -6.83734 3.88768 92 88 72 2.52983 5 6571 7 5796 6 6301
1903 -3.09684 -1.25444 0.00188101 191 191 188 0.607911 2 6329 3 5585 1 6090
5640 -6.14354 -5.91464 -1.86676 91 84 60 0.568699 5 6555 6 6395 7 5866 4 6732
1901 -3.1023 -1.54687 -1.76331 111 104 80 0.321693 2 4028 3 5631 1 6081
5639 -6.07668 -5.95684 -1.51113 68 62 44 0.546253 6 6394 7 5865 4 6731
1900 -3.12234 -1.522 -1.76479 108 102 80 0.250403 2 6355 3 5607 1 6080
5638 -5.589 -5.09952 4.26118 144 142 133 0.722219 5 6548 6 6386 7 5849 4 6722
1899 -3.13865 -1.50022 -1.7651 105 98 76 0.316199 2 3985 3 5604 1 6079
5637 -6.09894 -3.71701 -0.561132 138 134 110 0.659539 5 6529 6 6362 4 6697
1898 -3.27868 -1.34996 -0.605344 182 178 160 0.777275 2 6321 3 6243 1 6077
5636 -6.09894 -3.71701 -0.561132 138 134 110 0.659539 5 6530 6 6363 4 6696
1897 -3.09511 -1.25496 -0.404464 181 181 178 0.386523 3 5557 1 6075 2 6313
5635 -3.83238 -6.67577 -0.615431 121 115 90 1.57509 5 6493 7 5805 4 6661
1896 -3.09573 -1.25408 -0.454975 180 180 177 0.238362 3 5562 1 6074 2 6318
5634 -4.94909 -6.73187 -1.99714 54 38 19 1.59053 5 6479 6 6296
1895 -3.09612 -1.25401 -0.466744 180 180 177 0.320607 2 6319 3 5560 1 6073
5633 -4.35354 -5.94242 5.2243 90 84 61 0.436558 6 6282 4 6627
1894 -3.09429 -1.25379 -0.441724 181 181 179 0.11472 3 5561 1 6072 2 6317
5631 -5.37247 -6.26583 0.988225 126 124 103 2.34429 5 6463 6 6406 5 6563
1892 -3.09536 -1.25446 -0.416806 180 179 177 0.243533 2 6314 3 5556 1 6070
5630 -4.96811 -5.01016 -1.96203 71 66 51 0.980381 5 6301 4 6613 6 6086 7 5615
1891 -3.09431 -1.24895 -0.199663 40 39 31 0.286781 2 6305 3 5546 1 6061
5627 -6.0626 -3.77601 -1.88692 120 115 95 1.91539 5 6420 6 6365 4 6584 7 5834
1888 -3.15363 -1.47442 -1.7572 72 64 48 0.455536 2 3983 3 5602 1 6040
5626 -6.22355 -3.48786 0.563193 163 162 139 2.37941 5 6525 6 6361 4 6580
1887 -3.17033 -1.4532 -1.76451 100 94 72 0.255222 2 6337 3 5568 1 6038
5625 -3.61413 -7.60194 0.0557193 232 218 228 0.173664 6 6426 4 6554
1886 -3.24073 -1.45692 -1.6801 87 80 56 0.156562 2 3943 3 3168 1 6037
5624 -3.53866 -7.23046 1.48214 81 76 55 1.04105 5 6377 6 5977 7 5690 4 6546
1885 -3.29592 -1.38278 -1.29274 102 96 72 0.126549 2 6324 3 5565 1 6036
5622 -4.27556 -6.82004 -0.568611 17 17 14 2.36369 5 6357 7 5800 4 6521
1883 -5.42203 -1.31549 2.14821 152 150 130 2.15457 2 6188 4 7018 1 6004
5621 -4.27392 -6.81746 -0.4687 20 21 15 0.90208 5 6356 4 6518
5620 -4.84162 -7.20262 -1.66601 61 55 34 0.561845 5 5930 6 5702
5619 -3.93981 -6.63202 4.12202 77 75 64 0.971859 5 6344 6 5706 4 6510
1880 -3.51412 -7.61613 1.84565 49 46 34 1.51512 2 3510 3 5473 1 5918
5618 -5.14624 -7.14711 1.09328 57 55 45 1.43629 5 6481 6 6409
1879 -3.60981 -7.35417 1.73474 131 130 113 1.42397 2 6132 3 5472 4 6373 1 5916 6 5237 7 5240
5616 -6.38166 -5.68292 3.5914 42 42 37 0.353083 5 6298 4 6457
1877 -3.3607 -7.27159 4.77128 78 80 82 0.161697 2 6129 3 6175 4 5571 5 5423 1 5914
5615 -6.66003 -5.02411 1.93389 121 117 92 0.564504 5 6068 4 6443
1876 -3.36318 -7.27829 4.77687 71 72 72 0.119335 2 6128 3 6174 1 5913
5614 -6.78719 -4.71898 -1.97297 67 47 23 0.792553 5 6433 6 6243 5 6276
1875 -3.24542 -7.25187 4.98867 74 74 72 0.203286 2 6127 3 5467 1 5911
5613 -6.26691 -3.50962 1.95463 161 159 140 0.420644 6 6225 7 5727
1874 -3.32364 -7.13333 4.69894 94 93 90 2.26946 3 6173 1 5910 2 6823
5612 -5.39766 -2.89538 2.36913 169 166 152 0.846491 5 6261 6 6218 4 6417
5610 -3.94415 -6.61578 -0.70445 83 76 48 0.170152 5 5953 4 6354 6 5725
5609 -4.37034 -6.80268 3.06501 136 123 90 0.207472 5 5927 4 6335
1870 -3.8443 -6.58871 -1.80603 68 62 41 0.844459 2 6124 4 5026 1 5904 5 4860
5608 -5.25384 -7.16405 2.48181 22 21 17 1.25324 5 5884 6 5677 7 5199 4 6324
1869 -3.84809 -6.60073 -1.76882 55 50 32 0.498643 2 6819 3 6170 4 5569 6 4730 7 2388 1 5903 5 4859
5607 -5.28517 -7.03801 2.15115 115 114 101 1.61534 5 5885 6 5944 7 5173 4 6315
1868 -3.92569 -6.6984 -0.513393 87 78 51 0.841473 4 5023 5 2603 1 5902
5606 -4.52362 -6.15342 5.34581 93 88 64 0.303822 5 6156 7 5445 4 6299
1867 -3.88912 -6.66613 -0.472131 79 72 46 0.819195 2 6121 3 5461 1 5901
5605 -5.63607 -6.67192 1.23915 138 136 120 1.22397 5 6148 6 5917 4 6293 7 5440
1866 -3.86843 -6.74757 -0.384249 129 125 105 0.216029 2 6120 3 5462 4 5020 1 5899
5604 -6.04626 -6.10199 -0.968365 80 78 62 0.370154 5 6112 6 5886 7 5381 4 6271
5603 -6.03914 -6.22449 1.88319 159 187 235 0.400807 5 6115 6 5892 4 6263 7 5373
1864 -3.70124 -6.81296 4.77496 102 97 78 0.977693 2 7460 3 6773 4 6072 5 5936 1 5897
5602 -6.1094 -5.75767 1.01165 30 31 27 1.65058 7 5351 4 6259
5601 -5.08141 -5.19194 4.40568 139 137 117 0.234574 5 6107 6 5880 7 5346 4 6248
1862 -4.00373 -6.72201 -1.75338 82 77 60 0.236258 4 5025 1 5894 5 4858
5515 -5.55777 -6.69175 0.93885 65 55 36 0.388953 5 5306 6 5141 7 4782 4 5435
1776 -5.29887 -7.03569 1.19557 119 117 99 1.3509 2 6011 4 4922 5 4763 1 5772
5513 -5.583 -6.79497 2.21833 49 50 50 0.331091 5 5300 6 5140 4 5430
1774 -5.29869 -7.03246 2.02574 105 102 88 0.482583 2 3212 3 2749 4 4898 1 5766
5474 -5.18202 -7.21323 1.64709 45 45 32 0.463089 5 4788 6 4668 4 4940
5472 -5.45075 -6.94324 1.29626 56 56 55 0.623327 6 4642 4 4920 5 2366 7 2206
1733 -5.57005 -6.82412 1.58072 60 61 58 0.270301 6 4472 1 5670
4213 -6.06525 -3.50164 1.9259 121 116 82 2.59435 4 2904 3 449
474 -9.8534 -9.40511 3.56413 48 45 45 0.8336 2 1817 6 1881 1 1841
4211 -6.04031 -3.58851 -1.93255 89 85 67 0.204612 4 235 5 112 6 42 3 444
472 -6.25089 -5.93231 2.0188 48 47 45 0.335479 2 1810 3 1657 4 1388 5 1376 1 1831 6 1037 7 1225
4209 -6.14826 -3.46037 -0.748757 89 84 60 0.774741 4 230 5 110 3 440
470 -6.31652 -5.83307 1.9533 45 43 47 0.0969904 2 1804 3 1362 1 1827
4208 -6.24575 -3.52128 0.12242 161 157 134 1.44232 4 5180 6 5803 3 437 5 5501
4207 -5.83491 -3.21675 0.455236 167 166 143 0.851688 4 2873 5 2820 6 2788 7 2499 3 436
4206 -5.55926 -3.03711 1.50016 168 164 136 0.904673 4 200 5 2816 3 435
467 -6.2438 -5.92576 2.14416 55 54 52 0.164052 2 1785 3 1652 4 1381 5 1372 1 1823 6 1035
4205 -5.55926 -3.03711 1.50016 168 164 136 0.904673 4 201 5 2815 3 434
466 -6.26815 -5.91319 2.1788 58 58 58 0.142869 2 1781 3 1649 1 1820
4204 -5.87765 -3.34364 -1.95778 93 90 74 0.500499 4 206 5 91 6 28 7 97 3 429
4203 -5.71401 -3.21587 -1.93993 73 69 56 1.25692 4 2881 5 2810 6 4896 3 428 7 4511
464 -12.9833 -12.2588 5.56477 55 54 54 2.13976 2 1777 5 1834 1 1815
4202 -5.00694 -2.7305 -0.636649 150 146 126 0.254761 4 190 5 68 6 13 3 425 7 54
4201 -5.28851 -2.82776 1.14333 176 173 154 1.32377 6 4891 3 424
4200 -4.76998 -2.45476 1.15965 183 179 157 2.4636 5 63 6 2752 3 421
461 -6.25527 -5.80773 2.70248 111 110 89 0.295076 3 1317 4 1091 5 1056 6 1010 7 921 1 1811
4199 -3.68769 -1.85217 3.42895 132 125 105 0.999963 5 5480 3 419
460 -8.17256 -7.94083 4.24591 52 52 49 1.88622 5 1555 1 1807 4 1604
4198 -4.9844 -2.68681 -1.93323 78 76 62 0.423739 4 2841 5 5043 3 416 7 4495
459 -7.52704 -7.22859 3.83821 49 49 49 0.95993 6 1507 1 1798
4197 -4.21578 -2.05105 0.460328 114 107 70 0.27676 4 156 3 400
4196 -3.31087 -1.54054 1.9648 113 104 72 0.083535 4 5629 5 2737
457 -3.74344 -3.44029 1.36534 173 197 255 1.96016 2 2016 3 1001 1 1785
4195 -5.66858 -1.3475 4.13442 94 88 64 0.852131 1 412 5 2736
456 -6.32373 -5.80525 2.86052 54 55 53 0.170594 2 1753 3 1312 4 1090 1 1774 5 1045 6 999
4193 -4.48614 -2.30771 -1.94082 77 74 64 2.73109 4 2822 5 41 3 384 7 22
454 -6.34869 -5.79008 2.96586 49 48 46 0.35938 2 1750 3 1307 1 1771
4192 -3.73097 -1.93454 -2.08081 76 70 58 2.0103 4 2793 3 358
453 -6.34776 -5.78962 2.96438 52 51 48 0.561774 3 1306 4 1070 1 1770 2 1749 5 1004 6 960 7 893
4191 -4.4178 -1.594 2.53686 130 124 87 1.06269 4 5112 3 351
452 -8.17586 -7.7558 4.32783 50 48 44 1.13929 2 1739 6 1526 1 1769
4189 -2.79789 -1.28315 1.87713 51 46 34 2.23509 4 81 3 329
450 -6.32563 -5.806 2.9904 55 55 53 0.214167 2 1705 3 1288 1 1757 4 1068 5 1023 6 956
4188 -3.77601 -1.9348 -2.11589 74 70 57 1.65299 4 6406 3 325
449 -6.32319 -5.80627 3.11758 47 48 47 0.15006 3 1285 4 1056 1 1754 5 1010
4187 -3.37349 -1.41554 0.0781503 169 165 136 0.461472 4 31 3 175
448 -10.8037 -10.0442 6.1295 48 47 45 3.28095 7 1881 1 1752
4186 -8.35939 -0.83887 7.03511 153 147 129 1.719 5 1 3 8
447 -6.34557 -5.78862 3.09218 44 43 40 0.331378 2 1698 3 1283 4 1065 1 1751 5 1002
4185 -6.61861 -5.54737 -0.489705 128 123 91 1.13063 6 6767 7 6172 2 8532
446 -6.19196 -5.98609 3.2514 172 191 253 0.0798237 2 1996 3 1554 1 1746
4184 -4.85026 -5.79367 5.13217 140 137 119 0.577195 5 6837 7 6155
4183 -5.28639 -4.0662 5.69429 152 148 137 0.728421 3 7811 4 7037 2 8511
4182 -3.32375 -1.46941 -0.209363 126 119 82 2.21893 1 8176 3 7804 2 8501
4181 -5.51871 -6.93133 0.503613 134 130 106 2.35507 6 6735 7 6146 2 8494
442 -6.23033 -5.93447 3.31529 173 192 255 0.134833 2 1947 3 1499 1 1733
4180 -3.09552 -6.24277 5.60918 75 70 53 1.34367 3 7774 5 6811 2 8490
441 -5.79538 -5.4981 2.99156 172 190 252 0.738955 2 1946 5 968 1 1732
4179 -3.39993 -6.15664 5.53625 112 107 86 1.33222 3 7773 4 7013 6 6711 7 6124
440 -6.26984 -5.8855 3.31486 164 183 245 0.115073 2 1670 4 1262 1 1729 5 978 6 929
4178 -3.39993 -6.15664 5.53625 112 107 86 1.33222 3 7772 4 7012 6 6710 7 6123
439 -6.2111 -5.99718 3.4241 41 41 39 0.270171 2 1943 3 1503 1 1726
4177 -3.66005 -5.44517 5.79487 108 102 78 1.68532 3 7770 4 7009 2 8487 5 6807
4176 -4.84074 -3.85521 5.78557 151 147 135 1.58498 3 7761 5 6800 2 8478
437 -6.55941 -6.3598 3.72651 157 178 242 0.592772 2 1941 6 1219 1 1724
4167 -2.99933 -6.54016 3.31884 255 255 255 1.19521 3 7676 4 6916 2 8390
428 -8.31617 -7.4521 4.77487 148 166 233 2.22188 5 1244 6 1230 4 1256
4166 -3.2879 -7.26361 4.9436 78 78 79 1.25451 1 8066 3 7675 4 6958 2 8387
427 -6.76435 -6.4598 3.88326 41 41 38 0.541377 2 1653 5 1256 1 1711
4165 -5.21967 -6.83614 0.924354 58 51 35 0.264996 3 7660 2 8375
426 -6.79557 -6.41518 3.88574 40 38 34 0.435775 2 1652 5 1228 1 1708
4164 -4.66433 -5.99641 5.61223 72 68 52 0.264221 4 6897 2 8371
425 -6.30426 -5.83931 3.15655 45 43 40 0.160146 2 1712 3 1280 1 1703
4161 -6.75763 -6.50693 4.05777 36 36 33 1.65844 3 7648 4 6887 5 6708 6 6578 2 8362
422 -6.34236 -5.77198 3.14933 45 45 44 0.110256 3 1277 1 1693 2 1685
4158 -6.37076 -5.64202 -1.33753 103 96 69 1.05069 3 7640 6 6572 7 5998 2 8355
419 -6.26945 -5.8801 3.41155 42 42 39 0.27534 2 1666 5 962 1 1685 3 1489
4157 -6.04747 -5.11828 4.19348 133 131 119 0.888254 3 7639 4 6879 5 6704 2 8354
418 -6.30246 -5.8371 3.41191 39 39 37 0.128054 2 1654 3 1238 1 1682 4 996
4156 -6.57996 -5.35222 -1.32909 103 96 68 0.855348 4 6878 5 6701 7 5990 2 8349
417 -6.33544 -5.81709 3.38408 39 40 39 0.0530523 2 1644 3 1237 1 1678
4155 -5.37289 -6.99437 1.60342 99 96 79 0.249044 5 2404 7 2203 6 2321
4154 -2.51149 -6.18126 5.62588 80 74 59 1.44755 3 7600 4 6848 2 8316
415 -6.34391 -5.781 3.44218 163 184 249 0.0801981 3 1229 4 976 1 1674
4153 -3.94826 -6.68946 -1.69409 66 59 38 1.81295 3 7598 4 6847 5 6580 2 8314
414 -6.84501 -6.35539 3.92194 168 188 250 0.896082 2 1649 5 1219 1 1672
4152 -4.27171 -6.82065 -1.69056 37 33 21 2.10614 1 7973 6 6309 2 8308
413 -6.84501 -6.35539 3.92194 168 188 250 0.896082 2 1648 5 1218 1 1671
4151 -3.9855 -6.81393 3.52053 80 77 60 1.97009 4 6746 5 6573
4150 -3.9855 -6.81393 3.52053 80 77 60 1.97009 4 6745 5 6572
411 -6.84908 -6.36756 3.96481 34 33 30 0.634959 2 1646 5 1217 1 1669
4149 -3.2497 -5.74563 5.64408 108 100 79 1.11794 4 6837 7 5938 2 8295
410 -6.32502 -5.80721 3.50607 37 39 35 0.13054 2 1629 3 1222 1 1668 4 978
4148 -3.2497 -5.74563 5.64408 108 100 79 1.11794 4 6836 7 5937 2 8294
409 -6.34891 -5.79227 3.48261 37 36 32 0.230545 2 1627 3 1220 4 983 1 1666 5 921
4147 -5.20898 -7.16489 0.635592 34 33 26 0.660642 3 7580 4 6834 2 8290
408 -6.33855 -5.77839 3.50536 170 189 255 0.19783 2 1626 3 1218 1 1665
4146 -5.21228 -6.92572 3.69406 54 53 40 0.970573 5 6719 7 6016 6 6589
407 -6.33648 -5.77644 3.50338 163 182 248 0.278273 2 1625 3 1219 1 1664 4 974
4143 -6.04504 -6.339 3.70212 39 39 35 2.376 3 7471 5 6459 2 8275
404 -5.27527 -4.93286 4.42857 119 116 93 1.71951 2 4888 3 4071 1 1659 6 555 7 490
4142 -6.08099 -5.94346 -1.75783 78 73 52 0.50553 3 7561 4 6816 5 6642 6 6489 2 8269
403 -5.4168 -4.91258 4.51708 119 115 91 0.374928 4 920 1 1656 5 609
4141 -6.00275 -5.81717 1.12889 254 254 254 0.236775 3 7557 4 6811 5 6640 6 6486 2 8265
402 -5.28812 -4.7873 4.39453 114 112 89 2.35111 5 605 1 1655 4 916
4140 -6.07612 -5.98164 1.33384 83 80 62 1.43838 3 7555 4 6809 5 6639 6 6493 7 5933 2 8263
4139 -6.08521 -3.5437 -1.95718 71 68 53 1.09941 1 7923 5 6527 6 6461 2 8250 7 5724
4138 -2.57758 -6.19538 5.52098 61 59 46 0.853286 3 7384 2 8231
399 -5.60825 -5.33145 -1.97031 123 93 44 0.388241 2 2168 3 1465 4 3744 1 1647
4135 -4.38661 -6.38758 5.26669 103 97 73 0.373559 4 6831 6 6499
396 -6.27176 -5.80471 -1.771 15 15 10 0.106808 2 1901 3 1455 4 1220 5 1186 6 849 7 1043 1 1642
4131 -5.82769 -4.37387 4.77877 130 125 97 1.00247 4 6597 5 6440 6 6251 2 8174
392 -6.27485 -5.81603 -1.61199 68 62 41 0.243973 2 1899 3 1453 4 1218 5 1184 6 848 7 1041 1 1638
4130 -7.02777 -4.77069 2.39587 116 111 86 1.30459 4 6593 6 6059 2 8168 7 5599
391 -6.26673 -5.80858 -1.26868 20 18 12 0.0751675 2 1897 3 1451 4 1216 5 1181 6 846 7 1039 1 1637
4128 -2.51552 -5.91966 5.64026 75 68 49 1.56704 3 7383 2 8129
389 -6.17928 -5.9336 -1.01947 101 95 68 0.59839 2 2158 3 1697 4 1443 5 1180 6 1131 7 3313 1 1634
4126 -4.07824 -6.55765 -1.91907 37 34 24 2.23125 3 7374 4 6751 2 8123
387 -6.2199 -5.69903 0.957953 101 96 67 0.430929 2 1892 3 1450 4 1214 5 1176 7 3165 1 1630
4125 -3.36716 -5.91012 5.53067 112 106 84 3.13841 6 5951 2 8114
386 -6.2199 -5.69903 0.957953 101 96 67 0.430929 2 1891 3 1449 4 1213 5 1175 7 3166 1 1629
4124 -3.36716 -5.91012 5.53067 112 106 84 3.13841 6 5950 2 8113
385 -3.14162 -2.6894 0.163531 54 53 52 0.253613 3 603 1 1621
4123 -4.65908 -6.00237 5.35678 120 116 93 0.425579 6 6276 2 8100
384 -21.3715 -20.3508 7.42545 55 54 56 1.60951 5 2144 1 1603
4122 -4.31399 -5.64447 5.9255 89 82 60 2.2787 3 7353 4 6626 7 5771 2 8099 6 6275
383 -5.29561 -4.59634 0.929233 60 60 60 0.268142 2 1595 4 882 1 1590
4121 -4.31399 -5.64447 5.9255 89 82 60 2.2787 3 7354 4 6625 7 5772 2 8098 6 6274
382 -5.26621 -4.63887 1.08313 66 66 63 0.268534 2 1567 4 859 1 1585
4120 -4.58553 -5.27576 6.06276 120 114 96 1.61537 3 7342 4 6617 7 5860 2 8092
381 -12.7932 -12.0727 4.60556 52 50 52 0.740452 4 1648 1 1572 2 1841
4118 -5.83311 -4.30569 5.61399 45 42 29 0.259821 3 7318 4 6594 2 8073
379 -5.95284 -6.32263 1.78709 60 61 58 0.0946302 3 1952 4 1869
4117 -6.88477 -4.93612 0.8657 119 113 81 0.373899 1 7739 5 6437 7 5742 2 8072
4114 -3.73892 -2.08596 -1.89438 94 89 78 1.07881 4 6566 2 8056
4110 -2.75465 -6.03523 5.47845 81 74 55 0.0682426 3 7241 4 6529
371 -6.35381 -5.78433 2.1471 45 44 43 0.128028 2 1774 3 1329 1 1523 4 1104
4107 -4.25768 -6.80043 -1.51415 14 14 11 1.56741 4 6522 5 6359 2 7989
368 -3.481 -2.91989 0.594976 56 55 54 0.364507 3 568 1 1510
4106 -4.25768 -6.80043 -1.51415 14 14 11 1.56741 4 6523 5 6360 2 7988
367 -5.95229 -6.3216 2.17528 65 65 63 0.299021 4 1836 5 1577 6 1560
4103 -3.39612 -5.95605 5.58967 110 105 84 1.38956 3 7217 4 6507 7 5788 2 7975 1 7654
364 -6.35591 -5.7133 2.88057 53 52 50 0.302649 3 1305 1 1498 2 1746 4 1086
4102 -3.39612 -5.95605 5.58967 110 105 84 1.38956 1 7653 3 7216 4 6506 2 7974 7 5787
4101 -3.68914 -5.08751 5.96169 89 81 57 1.35353 3 7195 6 5911 2 7958
362 -6.39051 -5.72532 2.83526 54 54 58 0.192695 2 1745 3 1304 1 1496 4 1085 5 1039
4100 -3.69366 -5.09414 5.97082 89 81 57 1.6136 3 7194 6 5910 2 7957 6 6115
4099 -6.08336 -5.90168 1.67692 133 129 105 1.22616 3 7167 4 6463 5 6307
360 -6.38149 -5.72834 3.11915 178 198 255 0.100914 2 1691 3 1269 1 1485
4098 -3.6131 -4.43967 0.775634 134 131 113 0.134127 6 6088 2 7954
359 -6.38149 -5.72834 3.11915 178 198 255 0.100914 3 1268 1 1484 2 1690
4097 -5.54281 -6.53626 1.05008 71 66 53 2.49046 3 7193 2 7946 4 6296 5 5304 6 2222
358 -6.40437 -5.70716 2.99251 50 52 50 0.0974042 2 1692 3 1264 1 1483
4096 -5.44106 -6.74419 3.71184 79 74 54 0.592041 3 6991 4 6300 5 6157 7 5447 2 7943
357 -3.85821 -3.31691 1.30506 185 207 255 1.38417 3 699 1 1481
4095 -5.56871 -6.16081 4.23339 74 71 50 0.193812 3 7185 4 6479 5 6323 2 7941
356 -5.97877 -5.27058 2.6988 182 202 252 0.826668 5 725 1 1480
4093 -5.38549 -6.95775 1.89061 130 129 114 0.493153 4 6013 5 5868 7 5176 3 6718
4092 -6.07525 -6.04531 0.291393 125 120 87 1.03045 3 7170 4 6473 5 6308 2 7927
353 -6.45285 -5.62723 2.85902 176 196 254 0.241497 2 1460 4 1078 1 1467 3 1036
4091 -6.11091 -5.9131 1.83003 135 132 110 0.831432 4 6611 5 6454 2 7924
352 -6.47442 -5.60455 2.85964 57 58 57 0.0815796 2 1457 3 1033 4 780 1 1461
4090 -5.25658 -5.17887 4.37534 143 137 113 0.795973 3 7164 4 6461 6 5874 7 5345 2 7922
4089 -6.36551 -5.70447 0.769192 127 121 88 0.538004 4 6459 5 6294 6 6084 2 7921
350 -6.45645 -5.62795 3.05417 174 196 254 0.12598 2 1427 3 1005 1 1446
4088 -6.36551 -5.70447 0.769192 127 121 88 0.538004 4 6458 5 6293 6 6083 2 7920
4087 -6.66022 -5.26512 2.65544 101 97 72 0.322245 3 7155 5 6289 6 6077 2 7909
348 -12.8456 -11.2373 7.24553 173 194 253 0.937731 2 1399 4 1340 1 1442
4086 -5.72318 -4.20104 -1.97114 72 45 19 0.354703 1 7576 3 7147 4 6436 2 7901
347 -6.37785 -5.71972 3.21346 33 33 30 0.207179 2 1679 3 1257 5 984 1 1434 4 1017
4083 -6.96673 -4.76201 -0.632599 127 118 93 1.47348 3 7310 6 6374 7 5840 2 7894
344 -6.37321 -5.72266 3.30876 174 193 255 0.300652 3 1213 1 1421 2 1638
4082 -6.19344 -3.97697 -1.72534 121 118 101 1.60713 1 7551 6 6041 2 7885 7 5580
343 -6.3809 -5.7213 3.34351 36 37 33 0.237536 3 1212 5 932 1 1420 4 966
4079 -6.31639 -4.04167 0.58277 25 25 18 2.17769 1 7566 4 6183 5 6045 2 7880
340 -6.39945 -5.70434 3.37497 38 39 37 0.0949069 2 1633 3 1208 1 1415
4077 -16.0556 -7.47795 20.8745 142 136 118 2.1967 4 7025 2 7876
338 -6.37835 -5.72718 3.44041 172 190 255 0.158948 2 1630 3 1206 1 1413
4073 -4.56877 -2.26603 0.830224 184 181 159 2.28208 1 7539 4 5127 2 7860 5 5486
4072 -2.88992 -1.20866 1.65522 82 75 51 1.53582 1 7289 4 6388 2 7842
4071 -2.88992 -1.20866 1.65522 82 75 51 1.53582 1 7288 4 6389 2 7841
332 -6.45858 -5.63075 3.37807 174 194 253 0.21958 2 1343 5 653 1 1377
4070 -3.33499 -1.39233 0.110986 119 114 75 1.57624 1 7513 3 7089 2 7828
331 -6.03738 -6.18575 3.37719 161 182 255 0.106517 3 1754 4 1500
4069 -33.7816 -11.1905 9.65685 173 169 143 1.42162 5 6419 2 7827
330 -8.88335 -7.5868 5.05472 176 200 255 0.823176 3 925 1 1360
4068 -10.7405 -2.46042 -3.47527 77 73 58 3.22578 7 2466 2 7814
329 -6.386 -5.73235 3.51023 168 190 255 0.317733 3 1191 1 1358 2 1622
4067 -3.8493 -8.74773 2.05238 26 26 21 1.3375 3 6814 2 7805
328 -6.37903 -5.71975 3.47187 37 37 32 0.251978 3 1192 5 916 1 1357 4 949
4065 -1.42117 -2.29426 1.20185 75 71 53 1.04872 7 25 2 7794
326 -6.33111 -5.68162 3.56434 41 39 35 0.327049 2 1616 3 4080 1 1352
4064 -2.43217 -5.78342 5.67486 41 37 28 0.664671 3 3035 2 7788
325 -10.9344 -9.85241 6.83251 39 38 33 2.91149 7 1804 1 1351
4059 -4.47461 -6.99159 0.776708 62 57 38 0.368217 3 6767 2 7765 4 5000
320 -6.46025 -5.63019 3.57544 69 66 62 0.436122 2 1327 4 932 1 1340
4058 -4.18225 -6.70015 2.96205 113 102 69 0.167005 6 4711 7 2330
319 -10.1112 -8.80395 6.0876 160 179 244 2.29872 2 1317 6 1410 1 1338 4 1246
4057 -2.91716 -3.69527 -1.96324 100 97 87 0.359964 1 7633 4 6484 6 5858 2 7750 3 7207 5 6302
318 -7.06762 -6.04189 3.84451 47 48 44 0.580991 2 1316 5 642 1 1337
4056 -5.34336 -6.98194 0.712636 107 102 77 0.576711 4 6503 5 6341 6 6130 7 5655 2 7741
317 -7.06762 -6.04189 3.84451 47 48 44 0.580991 2 1315 5 643 1 1336
4055 -3.7193 -5.28477 5.90894 111 104 81 1.13379 3 7005 4 5978 6 5617
316 -7.05704 -6.03696 3.89308 43 44 42 0.462664 2 1301 5 641 1 1335
4054 -3.7193 -5.28477 5.90894 111 104 81 1.13379 3 7004 4 5979 6 5616
315 -7.08795 -6.01381 3.84547 173 189 250 0.5684 2 1310 5 640 1 1333
4053 -5.58734 -6.6991 -1.32954 103 96 70 0.00296817 5 6153 2 7731
4052 -4.52697 -5.48813 6.01953 113 108 88 0.374805 3 6982 4 6283 5 6122 6 5903 2 7715 7 5364
313 -5.51144 -4.76488 4.38294 109 104 73 0.200106 5 603 1 1330
4050 -6.04383 -6.22773 1.62885 172 196 239 0.329986 5 6116 6 5893 2 7696 4 6266
4049 -6.80182 -5.09467 1.72779 123 120 93 1.15013 5 6070 6 5852 7 5324
310 -5.68026 -4.58244 5.3847 147 142 122 0.238046 2 1021 3 632 1 1320
4048 -5.85898 -6.3121 4.01544 57 55 40 0.772919 3 6978 6 5890 2 7693
309 -6.15262 -5.62144 -1.95961 56 41 21 0.0753638 3 1461 1 1314
4047 -6.05498 -6.01904 1.61596 141 140 124 0.493459 3 6964 4 6264 5 5724 6 5528 2 7686 7 5077
4045 -5.88153 -6.42491 1.36573 167 192 244 0.228493 5 6135 6 5899 3 6979 4 6278
306 -6.48321 -5.51336 0.305544 32 31 20 0.226575 6 544 1 1309
4044 -6.48564 -5.51992 2.33622 111 108 85 0.310437 3 6948 4 6229 6 5869 2 7666 7 5340
305 -6.55387 -5.52157 1.28969 215 225 254 0.43747 2 1579 3 1146 1 1304 4 891
4042 -5.26528 -4.74734 -1.18328 103 97 68 1.77805 3 6952 6 5857
303 -6.50175 -5.57548 1.37096 48 47 47 0.153878 2 1577 4 898 1 1298
4040 -6.60812 -5.45711 2.22774 35 34 33 0.11026 1 7365 4 6230 2 7660
301 -6.52929 -5.5504 1.46597 62 61 60 0.199339 2 1574 3 1141 4 894 1 1289 5 847
4039 -5.76816 -4.43691 5.32893 121 116 86 0.43234 3 6935 4 5723 2 7654
300 -6.52954 -5.55056 1.46577 63 63 62 0.170941 4 893 5 846 1 1288
4038 -5.23763 -3.44142 5.5733 144 139 125 0.65777 3 6919 6 5829 7 5296 5 6030 2 7635 1 6796
4037 -5.23763 -3.44142 5.5733 144 139 125 0.65777 3 6918 6 5828 7 5295 5 6029 2 7634 1 6795
4035 -6.18794 -3.85066 -0.654684 109 104 80 0.0261386 5 6019 6 5809
296 -6.29474 -5.84837 1.33594 61 60 58 0.0493945 3 1444 5 1167 4 1420
4034 -6.20838 -3.71072 2.51294 112 107 67 0.389917 3 6903 4 6178 7 4940 2 7621
4033 -6.20838 -3.71072 2.51294 112 107 67 0.389917 3 6904 4 6177 7 4939 2 7620
294 -8.5923 -7.18733 2.34 51 51 51 0.511822 6 1095 1 1271
4032 -6.11785 -3.70001 -0.443878 135 131 104 0.350869 5 6014 6 5804 7 5282
4029 -3.01998 -1.54916 1.98699 85 77 51 0.560829 1 6754 4 6140 2 7605
290 -6.51595 -5.57251 1.82447 55 55 50 0.118749 4 835 1 1251 5 809
4028 -3.01343 -1.51555 1.95605 79 71 47 0.770198 1 7318 4 6409 2 7604 5 6246
4027 -3.74837 -1.97466 -0.78979 91 86 57 1.06301 1 7532 3 6870 2 7600
288 -11.4532 -9.79815 3.83702 55 54 55 0.174792 6 1585 1 1250
4026 -2.87803 -1.25425 1.77238 85 78 55 0.880708 1 7300 4 6396 2 7583
4025 -3.16745 -1.55372 -0.438962 125 118 84 1.55348 3 6853 2 7580 4 6128
286 -5.34554 -4.31422 1.24511 66 65 66 0.0599095 3 773 1 1228
4023 -6.29785 -1.67061 0.323015 139 134 103 1.06513 4 5098 2 7516
4022 -6.9855 -1.75995 -1.67123 101 93 68 0.975865 4 5597 2 7510
283 -6.51821 -5.5906 2.15274 53 53 51 0.0293804 2 1472 3 1050 1 1212
4021 -2.45941 -6.15429 5.6694 65 61 44 1.52728 3 6796 4 6370 2 7496 5 6213
4016 -3.85799 -6.61156 -0.666021 73 66 44 0.833307 3 6784 6 5227 2 7477
4015 -3.69629 -6.80542 4.76833 102 98 78 0.531042 3 6774 4 6073 5 5937 2 7461
4014 -4.14017 -6.74934 1.39394 94 85 54 0.311298 4 2617 5 2584 2 7453
275 -6.64218 -5.40046 2.05045 64 63 60 0.0652198 4 523 1 1189
4012 -4.26952 -6.8365 1.94379 83 75 48 0.977036 3 6125 4 5522 5 4816 6 2468 2 7448
4011 -4.30545 -6.5913 3.38758 95 88 61 0.88143 3 6096 4 5498 5 5361 6 4687 7 4347 2 7437
4010 -3.21437 -5.10477 5.82323 109 101 76 0.764443 4 6321 5 5876 2 7436
271 -6.57604 -5.48129 3.0571 174 194 254 0.100898 2 1383 4 712 5 685 1 1158
4009 -5.21201 -7.24809 -1.89947 25 23 16 1.09205 3 6740 4 6051 6 5197 2 7435
4008 -5.11862 -7.11132 1.06992 41 40 31 1.48957 3 7024 4 6505 2 7433
269 -6.68365 -5.32375 2.86121 181 199 255 0.309556 2 1122 5 452 1 1146
4005 -5.42084 -6.94271 -1.00762 103 96 68 0.784358 4 6027 5 5891 6 5669 2 7426
266 -6.61805 -5.42596 3.09148 53 52 51 0.0904107 2 1100 4 704 1 1137
4004 -5.27925 -7.02535 1.40612 118 116 100 1.55796 4 6020 5 5340 6 5681 7 4797 2 7418 6 4669
4003 -5.36232 -7.05809 2.35076 73 68 51 1.64262 4 4891 2 7417 5 4759
264 -9.09549 -7.28556 4.45653 57 57 53 0.480982 2 1071 3 1010 1 1131
4002 -5.5011 -6.89648 0.16294 133 130 105 0.86303 1 7118 5 5873 2 7409 6 5668 7 5183
263 -6.55975 -5.50999 3.12458 57 57 54 0.13494 2 1385 3 961 1 1120
4001 -5.42301 -6.94736 0.584192 122 117 90 0.921884 3 7016 4 6317 5 6169 7 5515 2 7407
262 -6.53823 -5.5251 3.21988 49 49 45 0.122465 2 1365 3 945 1 1118 4 720 6 629
4000 -3.02222 -3.55081 0.390189 67 67 65 2.33719 1 7134 6 4986 2 7398
3999 -2.78089 -3.17256 0.293733 186 208 240 2.21966 1 7109 4 6239 2 7394
3998 -5.48191 -6.91628 2.79281 133 131 114 0.228599 4 5997 7 5165 2 7389
3997 -5.6301 -6.79618 1.9552 153 174 219 1.38578 3 6687 5 5858 2 7379
258 -6.54497 -5.53828 3.32168 175 195 255 0.0753298 3 899 1 1101 2 1322
3992 -5.68667 -6.67749 3.15508 184 215 253 0.299972 1 7077 3 6667 2 7357
3991 -5.82418 -6.45904 2.88856 171 195 248 0.27886 3 6646 4 5938 5 5815 2 7339
252 -7.01383 -5.76578 3.66398 168 186 247 0.423246 2 1046 1 1085 6 572
3990 -5.82796 -6.46319 2.89103 172 198 249 0.25687 3 6645 4 5937 2 7338
251 -6.62494 -5.43677 3.38948 176 197 254 0.048579 2 1045 3 880 1 1084
3989 -5.83114 -6.46586 3.02243 175 192 234 0.333204 3 6639 5 5807 7 5132 2 7336 4 5933
250 -6.66105 -5.38758 3.12878 174 194 253 0.152232 2 1089 3 691 1 1080
3988 -5.85792 -6.40393 3.07697 177 205 254 0.38043 1 7054 3 6629 2 7325
249 -6.66105 -5.38758 3.12878 174 194 253 0.152232 2 1088 3 690 1 1079
3987 -4.85264 -5.73781 5.86832 92 84 61 0.304418 3 6654 4 5913 2 7315
248 -9.03616 -7.35399 4.7267 57 56 53 0.834602 2 1080 3 948 1 1078
3985 -5.99506 -6.18249 -1.0494 67 61 41 0.36217 4 5911 6 5539 2 7310
246 -12.2073 -9.63477 6.6513 171 192 255 0.163925 3 949 4 1007
3984 -6.00276 -7.13183 2.33797 149 177 231 0.766894 3 6685 7 5449
3983 -5.93601 -6.30667 3.08043 181 214 254 0.301249 3 6605 2 7295
244 -6.68617 -5.32063 3.21768 50 50 48 0.454427 2 1054 3 667 4 436 1 1067
3982 -6.05825 -6.16037 3.02062 174 203 252 0.360875 1 7012 3 6597 2 7291 4 5889
243 -6.64846 -5.37057 3.28143 48 46 42 0.121098 2 1044 3 675 4 428 1 1066
3981 -4.13294 -4.13742 1.79249 181 212 254 1.17897 1 6999 3 6547 2 7288
242 -6.65221 -5.37752 3.31727 151 166 214 0.352207 2 1042 3 651 4 426 1 1064 6 338
3980 -6.02429 -6.21483 3.47447 158 191 249 0.211797 3 6579 4 5874 2 7278
241 -6.64578 -5.33403 3.29968 40 41 36 0.579414 2 4371 3 3601 4 3055 1 1063
3978 -6.37027 -6.08024 -1.89015 96 91 71 2.24318 6 6090 7 5092
239 -6.7315 -5.36831 3.31365 38 39 35 0.313735 2 1040 3 668 1 1061 6 5863
3977 -6.14432 -5.93505 1.35128 132 129 107 0.125109 3 6557 7 5078 2 7262
238 -6.66476 -5.3158 3.27011 41 42 38 0.795211 3 669 4 3057 1 1060
3976 -5.43032 -6.92104 2.19887 35 37 36 0.0238658 5 5866 6 5662
237 -6.69029 -5.29437 3.23357 43 43 40 0.587781 2 1051 3 666 4 435 1 1059
3975 -6.08408 -6.19036 3.16575 152 186 238 0.641073 1 7009 3 6594 2 7247
236 -6.60141 -5.50194 3.46291 176 196 255 0.37393 2 1303 3 888 1 1057
3974 -6.26696 -7.05884 3.36954 135 162 222 1.33636 4 5959 7 5147
235 -7.1551 -5.71427 6.08399 117 112 86 0.837525 2 1032 4 635 1 1053
3972 -6.1041 -6.11663 3.34684 153 189 242 0.734839 1 6990 3 6576 2 7228
233 -5.51351 -4.27742 4.2691 116 112 84 0.1661 2 1030 5 246 1 1051
3970 -6.55385 -6.63971 3.91784 133 169 223 0.067402 3 6572 6 5553
231 -5.75565 -4.4526 4.70578 77 71 46 0.254945 2 1023 3 634 1 1048
3969 -6.14876 -6.07092 3.41669 148 173 222 0.0760329 5 5700 6 5506
230 -5.75991 -4.45245 5.25234 62 57 36 0.278378 2 1022 3 633 4 404 5 242 1 1047
3968 -5.96923 -6.07607 4.08532 111 108 88 0.392148 1 6359 4 5864 2 7216
229 -5.80224 -4.40001 5.29522 113 110 87 0.207466 2 903 5 241 7 204 1 1046
3967 -2.83618 -2.48888 -1.96243 114 105 91 0.820921 4 5689 2 7211 3 6395
228 -5.81381 -4.38688 5.26845 80 73 46 0.0800583 2 902 3 544 1 1045
3966 -6.3942 -5.69814 2.95027 155 191 243 0.845194 1 6901 3 6504 2 7193
227 -5.79318 -4.37413 5.56584 102 98 75 0.590162 2 899 3 3585 4 2988 5 2901 7 2599 1 1043
3964 -8.53013 -8.1771 4.85965 165 203 251 0.568501 1 6935 3 6548 2 7187
225 -6.48014 -5.51868 -1.76912 18 18 13 0.161348 2 1603 3 1167 4 3502 5 593 6 549 7 2963 1 1039
3963 -6.32244 -5.80324 3.21197 164 200 239 0.448676 1 6928 4 5796 2 7178
224 -6.48014 -5.51868 -1.76912 18 18 13 0.161348 2 1602 3 1166 4 3501 5 592 7 2962 1 1038 6 548
3962 -5.83718 -6.47162 3.40844 120 153 212 0.569075 4 5918 5 5791 3 6623 6 5578 7 5126
223 -6.47915 -5.51692 -1.2645 22 21 15 0.0935401 2 1601 4 908 5 590 6 547 7 768 1 1037 3 1165
3961 -5.5537 -5.18715 4.26263 77 72 51 0.762654 3 6472 4 5781 5 5652 6 5035 7 4625 2 7161
222 -6.47915 -5.51692 -1.2645 22 21 15 0.0935401 2 1600 3 1164 4 907 5 591 6 546 7 767 1 1036
3960 -5.5537 -5.18715 4.26263 77 72 51 0.762654 3 6471 4 5780 5 5651 6 5034 7 4624 2 7160
221 -6.65802 -5.37563 1.28914 214 225 255 0.076863 2 1256 3 857 1 1034
3957 -5.01285 -4.42662 5.95279 149 146 134 2.11926 5 596 2 7156
218 -6.31807 -5.81917 1.37032 51 50 48 0.166483 3 1435 5 1159 4 1206
3956 -5.01285 -4.42662 5.95279 149 146 134 2.11926 5 595 2 7155
3955 -6.44778 -5.65874 2.80311 113 109 88 0.214453 3 6506 4 5803 5 5642 2 7146 6 5455
3953 -6.52632 -5.56393 2.80697 113 109 87 0.522616 3 6462 4 5776 2 7141 5 5639
3952 -6.534 -5.49574 2.78396 117 113 88 0.129866 3 6457 4 5777 2 7140
3951 -5.85692 -5.03535 2.49324 165 192 248 1.01739 3 6458 5 5591
3950 -6.51455 -5.5521 2.89117 173 203 255 0.144111 3 6459 2 7138
211 -6.67859 -5.34588 1.59784 61 60 60 0.135122 4 595 1 990
3949 -8.89106 -7.53384 4.81073 169 205 251 0.709051 1 6828 3 6449 2 7121
210 -5.38977 -4.26082 1.07371 49 48 47 0.337432 2 1216 3 586 1 988
3948 -8.89106 -7.53384 4.81073 169 205 251 0.709051 1 6829 3 6448 2 7120
209 -6.65423 -5.37344 1.75943 50 49 47 0.184573 2 1218 4 561 1 981 5 509
3947 -6.5194 -5.47297 3.44931 81 84 90 1.88396 3 6426 2 7109 4 6228 5 6291
3946 -6.50053 -5.458 3.43847 96 99 108 1.22659 3 6425 2 7108 4 6227
3945 -5.43731 -4.79297 4.60278 118 114 91 0.736963 3 6470 4 5750 5 5601 6 5432 2 7104
206 -6.80586 -5.17216 1.76109 51 52 51 0.227016 3 578 4 376 1 953 2 959 5 292
3944 -6.59611 -5.45713 2.80149 114 110 86 0.429908 3 6456 5 5593 2 7096
205 -6.68334 -5.35197 1.98847 58 57 56 0.127223 3 776 1 948
3942 -6.66765 -5.35144 2.89472 185 208 251 0.339811 1 6836 4 5745 2 7088
203 -6.84395 -5.18319 1.96799 60 59 59 0.40612 3 3523 4 373 1 922 2 4285
3941 -6.76958 -5.27115 3.03868 174 204 245 0.0113648 3 6400 2 7071
3939 -5.1868 -3.58046 5.55687 118 112 89 0.907615 4 5221 6 4949 2 7033 5 5115
200 -6.81016 -5.17427 2.02175 51 51 49 0.334285 2 950 3 565 4 369 1 915 5 283 6 223 7 370
3937 -6.06803 -3.52264 -0.65823 87 80 51 0.285498 3 6343 4 5183 5 5504 6 5337 2 7015 7 4523
3935 -5.0595 -2.6756 0.109099 126 122 89 1.78588 1 6739 4 5160 2 6996
196 -6.73068 -5.20078 2.704 98 94 73 0.15909 2 937 4 485 5 262 1 906
3934 -4.49268 -2.24294 0.119843 122 120 89 2.48688 1 7294 3 6319 2 6990 5 5477
195 -6.75801 -5.22826 2.8949 59 61 59 0.19945 2 929 3 702 4 477 5 443 1 899
3933 -4.53299 -2.29171 0.814798 148 144 116 1.54373 4 5655 2 6985
194 -6.70488 -5.30051 2.99162 58 59 56 0.12538 2 1070 6 364 1 898
3932 -4.53299 -2.29171 0.814798 148 144 116 1.54373 4 5654 2 6984
3929 -2.88423 -1.21578 1.59064 123 115 87 0.728406 1 6705 4 5592 2 6947
190 -6.72924 -5.27193 3.02674 54 53 49 0.151095 2 1062 4 458 5 396 1 893 3 662
3928 -2.93 -1.16246 1.65201 43 38 22 0.349414 1 6692 4 5065 2 6934
189 -6.72351 -5.27402 3.05506 176 195 253 0.257315 2 1061 3 661 5 394 1 892 4 454
3927 -14.2479 -3.10029 -4.74588 87 84 68 2.98013 5 32 2 6853
3926 -3.54563 -6.98376 -1.74214 110 106 87 0.0825272 4 5585 5 5429
187 -6.73849 -5.24781 2.92422 60 61 60 0.0841937 2 1108 3 708 4 478 1 889
3925 -4.00424 -8.7937 0.810167 31 29 24 1.08849 5 4926 2 6842 6 2598
186 -6.76216 -5.21805 2.95998 55 56 53 0.333505 2 926 3 654 4 432 5 254 6 210 1 888
3924 -4.00488 -8.79467 0.810109 32 30 26 0.952671 3 6204 5 4925 2 6841 6 2597
185 -6.7565 -5.23006 3.02177 55 55 51 0.22587 2 925 3 655 1 887 4 431
3923 -4.00625 -8.79923 0.868234 79 63 42 1.3368 5 4924 6 2595 2 6840
184 -6.74469 -5.25168 3.05566 52 52 50 0.149622 2 1058 3 656 4 430 5 393 1 886
3921 -4.00838 -8.80043 1.58507 37 36 31 1.21537 1 6591 4 5053 2 6834
182 -6.78065 -5.19814 2.86166 55 56 53 0.306528 2 930 3 704 4 475 5 257 1 884 6 211
3919 -2.50341 -6.10241 5.66255 79 74 56 0.13583 3 6179 4 5573 2 6827
180 -6.72557 -5.28114 3.09061 53 53 51 0.125554 2 1059 3 657 4 452 5 400 1 880
3917 -4.3288 -7.90608 -0.641614 122 116 94 0.225598 3 6176 2 6817
178 -6.75432 -5.3123 3.22885 42 43 41 1.64668 3 653 4 433 1 877 5 6081
3916 -4.10564 -6.66639 -1.77452 61 55 38 0.115451 4 5557 5 5411 2 6811
177 -7.99966 -6.05922 6.82623 117 113 86 0.677055 2 913 4 420 1 875
3915 -3.31509 -6.3004 5.5065 83 76 57 0.44621 1 6571 4 6070 5 5934 2 6801
176 -5.86113 -4.32189 4.52651 114 109 82 0.318061 2 909 4 359 1 874
3914 -3.20877 -6.11791 5.59351 71 65 47 0.265421 3 6151 4 5550 7 5216 2 6799 1 6569 6 5715
175 -4.21558 -2.96341 2.74786 108 103 77 1.43434 2 866 3 502 1 867
3913 -3.07136 -6.06929 5.65588 106 100 80 0.553911 3 6771 2 6798 7 5215
174 -5.88737 -4.17376 5.5381 100 95 71 0.212468 3 542 4 311 1 864 6 153
3912 -3.07136 -6.06929 5.65588 106 100 80 0.553911 3 6770 2 6797 7 5214
3911 -4.14749 -6.08387 -1.96974 95 91 76 0.749815 3 6114 2 6794 4 5512 5 5917 6 5693 7 5212
3910 -4.35673 -6.90349 1.29283 69 63 41 0.53729 3 6143 4 5536 5 4828 2 6788 6 2477
171 -6.69894 -5.21836 -1.7679 18 17 12 0.147845 2 1014 3 623 4 399 5 355 6 191 7 253 1 857
3909 -3.37592 -5.92017 5.60639 83 76 56 0.398732 3 6115 2 6770 7 5193
