# 3D point list with one line of data per point:
#   POINT3D_ID, X, Y, Z, R, G, B, ERROR, TRACK[] as (IMAGE_ID, POINT2D_IDX)
# Number of points: 555, mean track length: 4.64113
7159 5.65728 -3.54252 -1.23353 57 38 33 0.652534 6 4352 66 4454 3 5198 4 5042 5 4380 5 4540
7158 5.06725 -3.78293 -0.965483 58 36 29 2.04447 5 4539 3 5197
7156 8.07251 1.11773 -0.38993 146 153 152 0.949097 19 5620 3 5188 21 5594
7154 6.69021 -3.2201 -0.42513 110 113 110 1.0245 59 4928 66 4425 3 5184
7152 6.46999 -3.41864 -0.188873 45 40 36 2.33608 6 4138 3 5177
7151 7.01288 -2.9686 -0.0953854 117 121 113 1.03932 4 5129 23 5225 59 5067 66 4551 3 5176
7150 8.86557 -1.84438 -0.0978923 86 62 46 0.711777 4 5127 5 4614 21 5583 23 5338 3 5174
7149 9.75081 -0.017498 0.0195056 43 47 43 0.825777 4 5118 60 7041 3 5167
7148 10.4008 3.50844 -0.0794254 59 61 52 2.80019 19 4989 60 6460 67 5854 3 5165
7147 5.72016 -3.69249 -0.00842686 27 28 27 1.62652 23 5016 22 5509 66 3812
7146 -6.91578 2.94036 0.0893591 145 154 155 1.16627 12 4669 30 5042
7145 -3.27459 4.31505 0.161033 152 123 84 0.724718 15 3953 16 4419 33 4788
7143 5.30964 -3.84996 0.134819 48 38 32 2.40115 4 4681 59 4551 3 5152
7140 8.9643 -1.88318 0.453299 125 121 111 0.725812 21 5567 22 5610
7139 9.11899 -0.578272 0.288407 61 63 63 1.68941 4 5244 22 5617 60 7200 67 6309 3 5143
7137 10.546 0.582404 0.510534 99 95 60 2.3388 4 5236 20 5985 22 5609
7136 8.68164 -1.95395 0.666023 99 82 60 1.64634 4 5229 5 4589 21 5545 23 5299 3 5137
7135 11.3762 1.86022 0.814836 38 25 22 0.253039 60 1278 3 5129
7134 9.95326 -5.50502 0.9719 7 8 6 1.34461 5 4417 6 4382 66 4495 3 5128
7132 10.9031 -4.95903 1.06403 49 48 42 1.433 4 5080 5 4412 6 4377 22 5480 23 5168 59 5146 66 4476 3 5126 21 5547
7131 11.2134 -4.87328 1.0721 52 49 42 1.45585 4 5079 5 4590 23 5300 66 4595
7130 11.1586 -4.75898 1.0665 46 44 40 1.54394 22 5478 59 5007 66 4475 3 5125
7129 13.7849 -1.20101 1.52098 69 63 42 1.85948 4 5220 22 5597 23 5394
7128 8.17248 -2.20928 2.77739 178 180 190 0.732031 22 5434 59 5138 60 7142
7126 8.408 -1.98192 2.73189 178 180 188 0.203911 21 5529 60 7141
7125 9.35121 -1.72331 3.76163 112 111 106 1.16942 4 5210 22 5432 38 4046 39 4335 40 4630 55 5758 3 5103
7123 8.09137 -2.31199 3.43246 121 121 117 2.53293 4 5048 21 5345 22 5168 23 4904 38 4043 39 4188 59 4988 3 5099 60 7131
7122 8.15042 -2.2028 3.67307 120 120 117 1.81721 23 4895 4 4822 55 5426
7121 -8.04416 1.86294 4.20618 54 36 28 0.748955 47 4458 48 4340 57 6229
7120 4.17923 8.19983 4.19282 63 40 29 0.30028 18 5244 53 4056 60 6608 36 5561
7119 9.39396 -1.6553 4.20555 86 61 48 2.02919 21 5342 22 5429 23 5131 37 4656 38 4040 39 4333 40 4495 55 5583 3 5097
7118 4.17923 8.19983 4.19282 63 40 29 0.30028 18 5243 53 4055 60 6607 36 5560
7116 9.37443 -1.65228 4.19409 91 65 50 2.38222 20 5946 21 5341 22 5430 23 5130 37 4655 38 4039 39 4332 40 4494 55 5582 3 5096 60 6927
7113 8.79231 -0.389784 3.68329 126 127 125 0.648278 22 5160 37 4452 38 3943 3 5095
7112 9.22569 -1.68743 -1.17662 114 114 111 0.35855 21 5510 3 5085
7111 5.29189 -3.84415 -0.387462 55 48 42 2.22631 5 4153 6 4174 59 4672 66 4234 3 5074 5 4350
7110 5.53503 -3.82126 -0.432954 137 146 144 0.244353 66 3938 3 5072
7109 5.76641 -3.68202 -0.432923 132 137 134 0.947483 4 4798 5 4152 22 5550 23 5091
7108 -6.52222 2.94623 -0.442428 143 147 148 0.363397 12 4578 31 5116
7107 5.78213 -3.69689 -0.433951 132 137 136 2.02441 4 4797 5 4151 24 4825 59 4669 22 5549 23 5090
7106 9.21013 -0.543244 -0.489765 117 117 118 2.31063 4 5164 22 5653 60 7074 3 5067
7105 8.92176 -0.443222 -0.486919 114 115 116 2.14808 21 5475 3 5066 67 6195 60 6855
7102 7.25869 -2.8593 -0.276334 100 99 87 1.612 4 4757 23 5056 59 4620 3 5055 22 5535
7101 5.07194 -3.83982 -0.174852 157 157 152 0.559984 4 4334 5 3817 6 3576 23 4741 24 4380 66 3352 3 5041 22 5358
7100 6.52695 -3.24736 -0.141427 139 139 135 0.453787 4 4983 5 4302 6 4137 23 5049 59 4861 66 4187 3 5039 22 5354
7099 6.52652 -3.24713 -0.141436 139 140 136 0.504315 4 4982 5 4301 6 4136 23 5048 59 4860 66 4188 3 5038
7098 6.89499 -3.18304 -0.240166 121 125 106 1.88202 4 5004 5 3805 6 4135 23 5243 66 3866 3 5036 22 5536 59 4625
7096 8.94113 -0.873983 -0.0541698 145 150 148 0.705446 21 5437 23 5334
7095 9.12073 -0.907281 -0.0554816 144 146 143 0.1784 21 5438 60 7045
7094 8.88012 -0.62937 -0.029091 40 40 35 3.79905 21 5434 22 5519
7093 9.45926 -0.240484 -0.119911 42 47 45 1.9661 4 4963 22 5333 60 6805
7092 9.12999 0.760854 -0.0393219 41 48 47 1.35787 4 5116 22 5511 3 5020
7091 5.65565 -3.69119 -0.034254 91 79 62 1.64868 5 4090 59 4590 66 3814 3 5012
7090 5.65726 -3.69291 -0.0337821 87 76 60 1.76721 59 4589 66 3815 3 5011
7089 5.56892 -3.6174 0.0437206 95 97 94 2.33948 4 4257 59 4102 24 3037
7088 5.96792 -3.67364 -0.00521455 24 26 26 1.30543 23 4702 3 5008 4 4725
7087 6.24088 -3.71519 -0.0614471 153 160 159 0.489756 4 4723 23 4739 59 4585 66 4149 3 5007 22 5318
7086 6.66874 -3.14583 -0.0247991 46 48 45 1.73479 5 4299 3 5004
7085 7.14799 -3.21674 0.0676229 59 65 63 1.48889 5 4052 66 4141 3 5003 22 5311
7084 7.24132 -3.21271 0.0644347 138 147 147 1.12606 4 4942 6 4424 59 5043 66 4362 3 5002 22 5508
7083 8.26486 -2.7873 0.134651 49 48 45 2.08648 4 4940 3 5001 5 4435 23 5208 66 4524
7081 9.77011 -1.43623 0.214125 39 39 34 0.393067 23 5204 3 4997
7080 9.89419 0.0543227 0.107826 91 103 99 2.91807 22 5626 3 4995 67 6140
7079 9.08454 0.757836 0.233781 35 39 38 2.092 60 6380 67 6136 3 4994 4 4933 21 5415 2 5131
7078 8.11708 -5.81066 0.264243 49 38 31 0.0171875 4 4679 3 4988
7077 6.18637 -3.71705 0.148954 72 69 65 1.12789 66 3766 3 4987 24 4281 23 4137
7076 11.4687 -4.39443 0.611614 49 45 36 3.83437 5 4595 3 4984
7075 11.84 -4.56833 0.626357 52 40 32 0.066437 4 4928 3 4983
7074 8.42896 -2.08067 0.273208 125 116 99 0.79105 22 5291 23 4987 3 4981
7073 8.43798 -2.08352 0.273529 123 116 100 0.715895 5 4265 22 5290 23 4988 3 4980
7072 8.88283 -1.84585 0.270723 130 127 116 0.322306 5 4433 22 5289 3 4979
7071 8.88304 -1.84598 0.271313 130 127 116 0.678435 4 4938 5 4432 22 5288 23 5187 3 4978
7070 8.76787 -1.92284 0.480598 143 140 131 0.696194 4 4925 22 5267 23 4968 3 4976
7068 8.92361 -6.13907 0.673365 40 21 12 1.15748 4 4648 5 4034 6 3801 3 4965
7067 10.0482 -5.54947 0.728319 63 62 56 0.520642 59 4794 3 4964
7066 10.4067 -5.36316 0.732501 53 51 45 1.56267 66 4320 3 4961 21 5394
7065 10.4221 -5.19295 0.8684 53 52 46 1.18636 23 4975 59 4792 66 4318 3 4960
7064 11.6381 -4.68396 0.803624 45 42 35 1.46874 4 4644 5 4253 22 5268 23 4973 66 4315 3 4958 21 5389
7063 12.9671 -1.10445 0.933359 75 71 47 1.4581 4 4610 22 5263 60 6988 67 6292 3 4952
7062 12.7373 -1.07768 1.08442 65 62 45 2.52553 20 5771 23 4960 60 6324
7061 11.907 -0.647591 0.951834 41 38 30 0.845044 23 5166 60 6711
7060 12.7166 0.129871 1.08399 40 42 36 0.475935 4 4903 60 6319 67 5742 22 5239
7057 14.0207 -1.41 1.60625 65 60 39 1.43311 23 5162 3 4932
7054 12.2456 1.41399 1.36299 27 28 26 3.09694 67 5678 3 4923
7053 13.7741 -1.38592 1.97547 81 66 35 2.44509 23 5154 60 6962 67 6245 4 4861
7052 13.4148 -0.903955 1.95374 98 81 41 2.18527 67 6242 4 5064 60 6959
7051 13.1493 -0.708772 1.95716 95 78 39 2.41914 21 4287 60 6663 20 5063
7050 13.6799 -0.742968 2.02883 95 77 40 1.58691 4 5062 23 5141 67 6240
7049 9.32156 -0.203879 1.05075 44 46 45 0.11289 4 5218 3 4908
7048 9.26256 0.687274 1.19852 61 63 63 2.13255 60 5707 3 4905
7047 13.8675 -1.21287 2.2268 82 66 35 1.81853 20 5709 60 6948 67 6243
7045 8.19772 -2.21232 2.78259 183 186 192 1.7017 4 4834 22 5172 5 4563
7044 9.26757 -1.69304 3.41908 124 124 120 2.0204 21 5110 60 6934 5 4561
7043 3.06823 7.53268 3.43402 99 99 96 1.36837 52 3841 53 4054 61 4628
7042 7.42826 1.39206 2.48093 155 154 153 0.602604 37 4372 54 4134 55 5088 3 4886
7041 9.02872 -1.99911 3.68104 119 120 117 1.14869 4 4828 21 5107 23 4903 38 3948 39 3990 55 5586 3 4884 60 6612
7040 9.02872 -1.99911 3.68104 119 120 117 1.14869 4 4827 21 5106 23 4902 38 3947 39 3989 55 5585 3 4883 60 6611
7039 6.5039 2.34658 -1.27305 170 167 166 0.638507 67 4896 3 4872
7037 8.12208 2.66046 -1.27755 132 134 131 2.25947 67 1443 3 4864 19 4110
7036 9.18569 -1.43787 -1.10347 48 48 48 0.610942 21 5310 22 5401 3 4858
7035 5.13696 -3.82979 -0.523143 69 38 29 1.10089 4 3914 3 4856
7033 5.62799 -3.60356 -0.387891 43 37 31 0.957662 3 4847 66 4233
7032 5.89304 -3.60096 -0.432613 126 131 128 0.172232 4 4438 3 4846
7030 6.52403 -3.25881 -0.4298 164 167 163 0.592189 4 4431 5 3862 6 3950 23 4822 59 4289 66 3934 3 4844 22 5394
7029 8.2972 0.267187 -0.474054 126 127 128 1.10783 4 5020 22 5542 3 4843 22 5386
7027 6.4934 -3.30229 -0.37119 125 125 120 0.279124 4 4387 23 4823 3 4831 22 5029
7026 6.52302 -3.28051 -0.351972 154 156 150 0.663304 5 3811 6 3953 23 4338 59 4231 66 3932 3 4830 22 5028
7025 6.63541 -3.19773 -0.277409 121 127 121 1.34769 6 3948 3 4829
7024 6.63523 -3.19712 -0.277905 125 130 125 0.866642 5 4114 6 3947 66 3871 3 4828 22 5019
7023 6.65294 -3.17146 -0.261468 49 51 47 0.749122 23 4782 59 4627 66 3869 3 4827
7021 6.86686 -3.04673 -0.424231 135 141 137 0.627377 4 4794 5 4147 6 4206 23 5085 59 4925 66 4231 3 4825 22 5393
7020 7.02191 -3.01482 -0.428391 158 160 151 1.2621 4 4793 5 4146 23 4814 59 4667 66 4230 3 4824 22 5046
7019 7.07603 -2.96435 -0.423924 159 161 153 0.974617 4 5028 5 4346 23 5084 59 4924 66 4423 3 4823 22 5392 22 5545
7015 7.12366 -2.95157 -0.391239 117 123 120 2.05593 4 4381 5 4145 23 4813 59 4666 3 4820 22 5016
7014 9.41753 -1.5283 -0.435114 135 139 137 1.60647 21 5279 23 4806 5 4339 67 5910
7013 9.08732 -1.06044 -0.400361 155 157 155 0.344666 21 5012 23 5074
7012 10.7592 -0.499812 -0.437848 90 96 88 1.67771 4 4783 67 5404 3 4809
7011 10.348 0.0157414 -0.314832 64 113 118 0.550829 4 5142 3 4806 60 6831
7010 8.42507 0.659777 -0.28356 124 128 122 0.492454 60 6465 67 5899 3 4803 21 5266 2 5195
7009 9.79186 4.06666 -0.183025 61 63 57 0.717194 20 4730 60 5154 3 4796
7008 -3.7437 4.05306 -0.230667 150 149 142 1.88922 13 3660 32 1373 31 1378
7006 5.23043 -3.77667 -0.122823 47 37 29 1.91007 66 4399 3 4793 5 4474
7005 6.94932 -3.19391 -0.193915 48 47 43 0.00591169 6 3900 22 5351
7004 6.87406 -3.07004 -0.237337 123 129 109 1.28606 4 4761 5 4112 23 4779 59 4623 66 3860 3 4786 6 4133
7003 6.88928 -3.07859 -0.236737 123 128 107 0.59618 4 4760 23 4780 66 3861 3 4785 22 5350
7002 7.22676 -3.26722 -0.196887 56 59 54 1.17334 4 4759 23 5047 66 4185 3 4784
7000 8.25311 -2.65013 -0.0739957 120 128 126 1.95178 21 5234 66 4181 3 4780 22 4988
6998 9.16788 0.817961 -0.150613 79 89 87 0.11645 22 5331 67 5859
6997 10.7149 3.6347 0.103072 59 61 53 1.95393 19 4960 20 5264 36 5690 60 5928 67 5270 3 4768 21 4947
6995 5.81922 -3.68893 -0.00864972 29 30 29 1.19045 4 4330 23 4707 3 4758
6994 5.92556 -3.71913 -0.00648743 26 27 26 1.43528 4 4328 23 4706 3 4757 22 5319
6992 6.01359 -3.6499 0.0815098 30 32 31 1.39955 4 4676 5 4061 24 4574 59 4099 66 3806 3 4753 22 4931
6991 6.41998 -3.39354 0.034081 88 79 66 0.00200954 6 3861 3 4751
6988 7.26526 -3.28485 0.145283 56 59 56 2.18105 4 4941 5 4267 3 4741
6987 7.07971 -2.86561 0.0417759 115 118 113 1.7109 4 4247 23 4191 59 4542 66 3802 3 4740
6986 7.30207 -2.84384 0.0455912 56 60 54 0.693376 66 4140 3 4739
6985 7.37655 -2.79059 0.0508502 102 104 95 0.942494 4 4245 5 4049 23 4697 59 4541 66 4139 3 4738
6984 7.3004 -2.84904 0.134483 53 56 51 0.950151 4 4670 5 4050 21 5405 23 4696 59 4540 66 4138 3 4737 22 4927
6983 7.50613 -2.7905 0.136338 48 46 39 0.310854 23 4695 3 4736 22 4925
6978 9.97521 -5.59317 0.297948 36 38 36 0.0452056 4 4672 3 4712
6975 7.08429 -2.8707 0.173997 107 109 101 1.79487 4 4668 66 4104 3 4710
6974 -4.73535 3.57099 0.166729 108 110 102 1.4199 14 4134 32 4444 68 4029 15 3676
6973 8.41006 -2.09154 0.336917 138 138 127 0.244059 4 4643 5 4249 3 4707
6971 8.36633 -2.08135 0.383959 139 139 129 0.719592 4 4641 5 4248 21 5198 22 4895 23 4641 3 4705
6970 9.42064 -1.62277 0.356615 121 122 119 1.79438 5 4423 21 5403 22 5496 3 4703
6969 -8.03513 1.83968 0.347382 107 110 108 1.47495 13 4060 14 3724 32 3944 62 6335 12 4247 31 4658
6967 10.3823 0.505886 0.551014 45 36 28 1.98691 4 4919 60 6347 67 5235
6966 11.6222 0.774755 0.571617 31 34 31 1.67695 4 4920 22 4884 3 4696
6965 11.6222 0.774755 0.571617 31 34 31 1.67695 4 4921 22 4883 3 4695
6962 9.65536 -5.65218 0.791187 44 37 28 0.552625 4 4183 5 4016 6 3783 24 4277 59 4039 66 3752 3 4683 22 4867 23 4114
6961 9.65536 -5.65218 0.791187 44 37 28 0.552625 4 4182 5 4015 6 3784 24 4276 59 4038 66 3753 3 4682 22 4866 23 4113
6960 10.041 -5.45546 0.779784 39 33 26 0.253409 23 4650 3 4681
6959 9.98949 -5.42048 0.7752 38 32 25 0.850349 23 4649 66 3751 3 4680
6958 9.98051 -5.4065 0.909436 65 61 51 0.733154 4 4179 5 3665 6 3781 23 4078 24 4539 59 4036 66 3750 3 4679 22 4865
6956 11.3145 -5.051 0.749596 51 48 42 1.7894 4 4647 59 4791 3 4677 23 4974
6954 11.0905 -4.84395 0.906534 47 44 34 0.656892 4 4169 5 4011 6 4028 22 4897 23 4645 59 4511 66 4088 3 4675 21 5157
6953 11.1786 -4.81204 0.962334 15 14 11 0.903721 4 4615 5 4231 6 4027 22 4862 23 4644 59 4790 66 4316 3 4674
6950 9.93865 1.26994 0.599693 40 23 19 0.817713 19 5181 60 6344 67 5767 3 4667
6949 7.74342 1.33454 0.421603 152 152 147 0.823943 67 5228 3 4662 2 4271
6948 12.1265 -4.72178 1.22013 42 40 33 0.772516 22 5246 59 4772 3 4658
6947 14.2814 -2.13911 1.59569 57 46 26 2.29409 2 5077 21 4836 22 4840 60 6694 3 4657
6946 13.6779 -1.87054 1.53454 59 54 39 2.00331 21 4835 3 4653
6945 11.8414 0.857508 1.09659 137 130 74 1.53747 4 4578 22 4851 67 5684 3 4645 20 5439 21 4860 2 4753 60 5769
6944 10.1017 1.34857 0.980094 36 37 33 0.00827206 67 423 3 4642
6943 7.88058 1.77082 0.688524 163 160 156 0.195805 21 5379 60 5759
6942 14.3283 -2.14897 2.19603 56 47 29 0.745349 2 5040 21 4815 60 6640 3 4633
6938 14.1089 -1.7727 2.19324 82 68 38 0.928781 4 4865 60 6635 67 5991 23 4922
6937 13.9763 -1.58669 2.00001 96 81 43 1.20071 4 4864 60 6665 67 6249 23 5157 3 4623
6936 13.9303 -1.40314 2.1948 85 72 40 1.26008 4 4847 20 5711 21 4805 22 5195 60 6631 3 4622
6935 9.11248 0.822548 1.12682 99 99 74 1.52321 1 5388 22 5185 4 5059 3 4614
6934 7.56094 1.07786 0.884921 69 69 61 1.42563 22 3469 3 4612
6932 13.5709 -0.816536 2.24623 15 10 7 1.93712 37 4479 60 6246
6931 13.1248 -0.635197 2.02445 19 14 9 1.40547 4 4845 20 4393 21 4799 22 5190 3 4601
6930 7.74522 1.28699 1.46426 80 77 72 1.10294 20 5053 3 4596
6929 8.47333 -2.26828 2.02246 159 157 148 2.6197 2 4676 22 4781
6926 5.08124 -3.79462 1.24163 90 90 84 1.29713 4 4554 5 3984 6 3737 24 4229 41 4324 59 3971 66 3666 3 4592
6924 5.03023 -3.79258 1.29929 105 101 93 1.5257 4 4552 5 3615 24 2856 25 4158 59 3315 66 3080 3 4589 22 4778
6923 8.18179 -2.09078 2.74917 163 166 169 1.6962 4 4833 22 5171 23 4906 38 3951 39 4194 3 4587 5 4395
6919 7.4627 1.42608 2.36342 62 46 31 0.639159 22 5164 55 5091 3 4581
6918 7.87317 -2.30669 3.09604 54 53 48 1.30301 4 4537 38 3772 39 3650 40 4127 58 4899 3 4580
6913 8.34333 -0.057321 3.10347 72 67 61 1.52381 22 4766 60 5611 37 4354 21 4217 38 3484 39 3985 55 4950 20 4972 67 5561 2 4639 40 4322
6911 -3.52574 0.454788 1.25864 60 57 50 0.704075 13 3933 48 3453
6910 -4.44682 0.377986 1.72628 86 82 72 1.68253 13 3173 31 4585
6909 8.30008 0.0612585 3.11334 78 74 67 1.04844 22 4764 37 4352 60 5609 21 4216 3 4573 20 4970 38 3464 55 4947 67 5558 39 3619 2 4637
6908 -6.0044 2.80054 3.12201 56 52 45 1.17233 46 4621 47 4037 14 4025 49 3992 48 3918
6907 7.42054 -2.56819 3.11351 76 74 67 1.74171 4 4523 39 3978 40 4134 59 4465 3 4571 5 4196 38 3754
6904 7.46486 -2.53132 3.10538 76 73 66 1.71398 4 4524 23 4563 38 3753 39 3974 40 4135 3 4569 5 3953 58 4906 59 4464
6903 7.5194 -2.49908 3.10252 71 68 62 2.10819 4 4518 38 3752 39 3993 40 4133 3 4568 5 3952 58 4905 59 4463
6901 7.59261 -2.47378 3.11269 81 77 68 1.4883 4 4059 22 4228 23 3964 38 3751 39 3652 40 3815 59 4462 3 4566 5 3955 21 4761 58 4903
6899 7.77903 -2.38238 3.11574 72 69 62 1.19878 4 4538 38 3769 39 3646 40 4129 5 3950
6897 7.73793 -2.41911 3.12655 87 85 76 0.94037 4 4079 22 4226 23 3963 38 3770 39 3647 5 3951 3 4564
6895 7.94555 -2.28145 3.20463 77 73 66 0.691485 4 4536 21 4183 22 4223 23 3958 38 3767 39 3645 40 3813 59 3915 60 6205 3 4563 5 4194
6885 7.34608 -2.59209 3.10412 57 54 48 1.16352 4 4525 38 3756 39 3977 40 4136 3 4550 58 4909
6884 7.34932 -2.60645 3.16674 117 116 111 1.21603 4 4521 21 4749 23 4564 40 4097 3 4549 58 4908
6883 7.26058 -2.62607 3.20741 83 81 74 0.825484 4 4520 22 4758 23 4565 38 3732 39 3975 59 4418 3 4548 21 4729 41 4263 58 4820
6881 8.13432 -2.39921 3.51045 130 130 132 1.07129 4 4517 21 4760 38 3423 55 4816 58 4506 59 4416 60 6203 3 4547 58 3595
6880 8.1337 -2.39827 3.50978 130 130 131 1.16201 4 4516 38 3424 3 4546 55 4817
6879 -7.38884 2.29946 3.98588 100 99 93 1.87837 29 4855 30 3857 31 3972 47 3635 56 4757
6878 8.77324 -2.09352 3.99437 98 98 93 1.31268 4 4506 21 4118 22 4209 23 3920 38 3420 39 3623 40 3775 55 5247 58 4455 3 4545 59 3827 60 6201
6876 4.79698 -3.96527 -1.26885 145 146 144 1.15939 4 4488 5 3530 59 2748 66 2807
6875 4.90607 -3.90037 -1.26665 146 147 145 0.312007 4 3964 3 4528 5 3529 6 3279 66 1128 59 3775
6874 4.90218 -3.91772 -1.23223 119 118 113 1.26122 4 1384 5 1260 6 2613 3 4527
6870 8.52745 -1.97676 -1.27163 131 131 126 0.616279 4 4476 3 4511
6869 6.03297 -3.3827 -0.868739 61 37 30 1.27894 5 3895 6 3689 59 3738 3 4502 22 5069
6868 6.03332 -3.37995 -0.812859 52 34 26 0.573096 66 3503 3 4500 4 3947
6867 6.03332 -3.37995 -0.812859 52 34 26 0.573096 66 3502 3 4499 4 3946
6866 -1.30742 2.89319 -0.500788 70 42 33 0.931235 14 4280 16 3995
6865 6.34149 -3.21255 -0.92054 66 38 29 1.21637 59 4704 3 4498 4 4462
6864 6.55347 -3.1008 -0.920189 62 37 29 0.127609 59 4330 3 4497
6863 6.55347 -3.1008 -0.920189 62 37 29 0.127609 59 4329 3 4496
6861 9.25295 -1.55187 -1.06819 85 89 93 0.95917 4 4458 5 4373 22 5064 60 6887 67 5950 3 4490 23 5104
6860 -7.871 1.75279 -1.06305 80 86 88 0.959618 13 4313 14 4271 31 4840 32 4869 62 6502 63 6575 64 5920 65 5818
6859 5.12859 -3.82368 -0.56575 80 44 31 0.30962 4 3046 66 1026 3 4478 23 3704
6858 7.56062 1.6939 -0.626907 150 149 147 1.13603 19 5052 21 5040 20 5349
6856 -6.43414 2.85626 -0.428192 59 59 55 1.00221 12 4371 13 3622 31 4349 30 4183
6852 6.1859 -3.34034 -0.427701 108 118 110 1.14006 5 3447 23 4381 59 2636 66 2670 3 4462
6851 6.33057 -3.35904 -0.433767 111 120 112 1.18995 4 4433 5 3864 6 3954 23 4379 24 4667 59 4291 66 2669 3 4461 22 5052 59 2633
6850 6.34986 -3.30795 -0.429284 130 141 140 0.914972 4 3903 6 3644 59 3698 66 2668 3 4460 4 4432 22 5051
6849 6.60095 -3.20155 -0.429882 121 133 129 0.550265 4 4429 5 3861 6 3989 23 4820 59 4288 66 3437 3 4459 22 5049
6847 3.84261 0.623834 -0.214556 97 96 89 0.821466 60 2045 3 4454
6846 10.5752 4.12664 -0.654334 67 70 61 1.77987 19 4616 3 4451 21 3873 60 6061
6844 5.52391 -3.80299 -0.26526 86 90 88 0.258432 24 3980 59 3618 66 2566 3 4443
6841 6.02746 -3.63998 -0.406882 59 59 58 0.0143854 6 3648 3 4439
6840 6.28353 -3.34092 -0.256058 100 101 83 0.389478 4 3832 59 3608 3 4437 22 4585
6838 6.46735 -3.323 -0.314556 109 112 103 0.416331 4 4388 5 3812 6 3643 23 4337 24 4407 59 4232 3 4435 22 5027
6837 6.53006 -3.30518 -0.263906 135 136 125 0.871139 4 4385 5 3810 23 4336 24 4650 59 4230 3 4434 22 5025
6836 6.56809 -3.26703 -0.403089 55 55 51 1.41116 4 3006 5 2659 6 2489 23 3666 66 2664 3 4433 22 4618
6835 6.59493 -3.20243 -0.392785 53 55 52 0.799025 4 4430 5 3859 6 3949 23 4377 59 4286 66 3933 3 4432 22 5022
6834 6.67437 -3.17621 -0.430551 121 132 128 0.592469 4 4428 5 3858 6 3988 23 4819 59 4287 66 3436 3 4431 22 5048
6832 6.66935 -3.1737 -0.391221 55 57 54 0.983192 4 4427 5 3857 6 3639 23 4817 3 4430 22 5017
6831 6.66922 -3.17339 -0.391257 52 54 52 0.878604 4 4426 5 3856 6 3640 23 4818 59 4285 66 3931 3 4429 22 5018
6830 6.75909 -3.15297 -0.43209 133 143 141 0.341631 4 4425 5 3855 6 3676 23 4816 59 3696 66 3435 3 4427 22 5047
6829 7.49722 -2.85751 -0.436161 134 143 144 0.637695 59 4284 66 3429 3 4426 22 5045
6828 -6.15594 2.94052 -0.429277 132 138 138 2.05131 13 4834 30 5097 32 4977 12 4712
6827 7.43778 -2.82703 -0.431878 139 147 148 1.8999 5 3853 23 4811 59 4283 66 3428 3 4425 22 5044
6826 7.58229 -2.88579 -0.397233 44 43 41 2.35435 4 4756 5 4144 23 5081
6825 -6.38817 2.8805 -0.433099 144 151 152 1.19498 13 4603 30 4927 68 4153
6823 8.17142 -2.73327 -0.29548 48 49 45 1.93794 21 4990 66 3418 3 4418 22 4576 23 3592
6820 10.1088 -1.35963 -0.363887 38 33 27 0.676607 4 3802 23 4319 60 6471
6818 8.31708 0.276217 -0.367328 113 115 108 0.626204 60 6006 67 4812 3 4399
6817 9.75704 1.22976 -0.228215 46 42 39 1.52651 19 5284 21 4984 22 5330 3 4391
6815 6.05985 -3.59829 -0.238272 95 96 92 1.72021 5 2590 3 4378
6814 6.70193 -3.19739 -0.21652 62 67 63 0.980025 5 3807 59 4228 66 3868 3 4374
6813 6.814 -3.1583 -0.133706 47 48 44 1.34689 5 3755 59 4579 66 3862 3 4372 6 3899
6812 6.84489 -3.08624 -0.124873 126 127 120 0.699584 4 3720 5 3285 23 4276 59 4167 3 4371 22 4527
6802 7.23519 -3.17395 0.0145734 87 104 96 0.481023 4 4319 59 4092 3 4319 22 4449
6800 8.28551 -2.92652 0.161261 38 37 34 0.650962 5 4048 21 4931
6798 8.67988 -1.95759 -0.00334525 126 124 100 1.6422 4 4709 5 4289 21 5232 22 4431 3 4314
6797 8.67988 -1.95759 -0.00334525 126 124 100 1.6422 4 4710 5 4290 21 5231 22 4432 3 4313
6796 9.0826 -0.471269 0.22012 34 32 26 1.54186 20 5202 60 5007 67 5247 3 4304 23 4979
6795 -7.90307 0.685 0.234133 27 27 25 1.56342 64 5378 11 4664 62 5855 13 4101 65 5281 14 4117 63 6439 30 4845
6794 8.93525 -0.458901 0.213625 36 35 28 1.71923 22 4910 60 5885 67 5246 3 4303
6793 10.8163 -0.3294 0.216152 32 31 28 0.708859 20 5510 3 4302
6792 9.81919 0.922142 0.101341 45 47 39 2.27422 4 4694 22 4420 3 4297
6791 10.0883 1.48035 0.273745 91 91 56 2.39771 60 5000 3 4292 2 4374 21 4415
6790 10.3863 4.5232 0.115894 109 84 38 0.813889 60 6419 3 4285 20 5550
6789 5.21506 -3.88905 0.131573 76 77 72 0.501306 3 4277 22 4414
6786 6.61343 -3.31192 0.145103 37 37 36 0.00787583 59 4543 3 4274
6784 7.11281 -2.79172 0.177602 131 136 136 1.73988 4 4246 5 3699 23 4666 59 4086 66 3183 3 4273 21 4406 22 4926
6783 12.5335 -0.901998 0.66141 50 49 38 2.12434 4 4924 60 6352 3 4266 22 5262
6782 9.75258 0.978466 0.445526 46 28 23 0.119914 20 3901 3 4263
6781 7.54819 1.69189 0.329021 148 148 145 0.986876 22 4874 60 3780 2 3673 3 4249 67 4543 20 4597 21 3564 1 3906 19 4389
6775 11.0688 -4.96783 0.915535 34 33 28 0.967727 4 4171 5 4012 6 3773 22 4898 23 4647 59 4513 66 4090 3 4238 21 5158
6774 11.2289 -4.84648 0.869847 10 11 9 0.9395 4 4170 5 3656 6 3770 22 4896 23 4646 59 4510 66 4089 3 4237 21 5156
6773 11.4456 -4.75106 0.81355 47 45 38 0.683629 4 4222 5 3148 22 4384 23 4109 66 3746 3 4236 4 3584
6772 8.70845 -1.90075 0.550348 137 136 124 2.22566 4 4167 3 4235 21 4876
6771 10.0559 0.288461 0.693908 85 87 80 0.537489 4 4160 60 5772 67 5191 3 4227
6770 7.5681 1.69999 0.445587 151 152 148 0.958088 60 3681 67 3132 3 4218
6769 10.1084 4.36612 0.853465 139 133 97 0.746563 67 5187 3 4216
6768 10.2284 4.58983 0.782677 155 144 93 0.647565 19 3720 20 3834 36 3931 60 3679 3 4215
6767 8.84666 -6.21214 0.988867 29 17 12 0.700479 4 4184 3 4213 5 3667
6765 10.0589 -5.39925 0.992337 12 13 12 0.7297 4 4178 5 3663 6 3780 21 5129 23 4077 24 4538 59 4516 66 3692 3 4210 22 4350
6764 10.7262 -5.0056 1.03168 47 46 39 1.16826 4 4172 5 3658 6 3772 22 4344 23 4076 59 3995 66 3691 3 4209 21 4845
6762 11.6013 0.773878 1.05436 32 34 32 1.42085 4 4580 20 5137 21 4337 22 4328 60 4849 67 4416 3 4196
6760 7.81249 1.34536 0.626885 140 141 136 2.05936 22 4298 3 4190
6758 8.12274 -2.63435 1.1465 50 47 39 3.09748 5 3620 59 3976 3 4158 21 5632
6757 8.1877 -2.69137 1.28141 88 87 84 1.11056 2 4209 23 4596 59 4486
6753 13.7263 -0.778979 2.19324 85 70 35 1.22936 4 4108 21 4278 22 4287 23 4588 60 5653 67 5070 3 4155
6752 12.8145 -0.574724 2.01454 55 51 42 0.92828 22 4795 60 5652 3 4154 67 4308
6751 7.7308 1.33519 1.24757 96 93 84 0.840767 19 4272 3 4151 37 4382
6750 7.65995 1.42344 1.24347 109 105 96 0.296661 60 4720 3 4150 19 4796
6749 5.00232 -3.87687 1.21282 110 107 99 0.193267 25 4163 3 4144
6748 5.03949 -3.86166 1.19075 153 152 150 0.492485 24 3737 3 4143 22 4270 23 3989
6739 8.7764 -1.9009 3.13509 83 82 75 1.50678 4 4089 21 4231 38 3519 39 3668 3 4132 23 3975 55 5287 60 5506 5 3970
6737 8.83124 -1.8432 3.16399 109 107 102 1.21554 4 4544 21 4225 22 4261 23 3972 38 3791 39 3666 40 4143 55 5439 60 6232 3 4131 5 4201
6736 8.5379 -1.99188 3.16496 104 104 99 0.803451 4 4548 22 4246 23 3951 38 3469 39 3670 40 3803 55 5271 60 6225 3 4130 5 4203
6728 9.07721 -1.6804 3.1917 87 85 76 1.26646 21 4253 22 4258 38 3513 60 5500 3 4125 4 4085 5 4198 23 3969 39 3685 55 5306
6725 9.12773 -1.58113 3.15449 105 105 102 0.804458 37 3971 55 4965 60 5496 5 3961 3 4123 4 4081 21 4254 22 4257 23 3965 40 4140 20 4992 39 3686 38 3525 2 4664
6719 8.79482 -0.888616 3.11182 66 61 53 1.4878 20 4985 21 4244 38 3500 39 3656 67 5573 40 4092 3 4119 22 4236 23 4567 60 5624
6714 8.15833 -2.20158 3.12736 80 77 71 0.968627 4 4074 21 4206 22 3417 23 3956 38 3479 39 3676 40 3809 55 5273 59 3949 60 5435 3 4114 5 3945
6712 8.23262 -2.17511 3.13218 71 69 62 1.31348 4 4076 21 4201 23 3954 38 3478 39 3677 40 3808 55 5274 3 4113 5 3973
6711 2.64716 4.84905 1.7884 63 58 52 2.41512 36 463 54 4088
6709 8.08607 -2.22436 3.11848 75 72 65 1.28325 4 4075 21 4207 22 3419 23 3957 38 3477 39 3642 40 3812 58 4555 59 3950 3 4112 5 3946 60 5434
6708 6.2646 9.79405 4.63524 91 87 76 3.02996 18 4244 35 4738
6707 8.03534 -2.25965 3.12325 81 79 73 0.961974 21 4205 38 3480 39 3643 3 4111 4 4078 5 3947 23 3961 40 3811 59 3951 60 5436
6705 5.38066 8.85281 3.93625 92 88 77 1.46907 18 4278 35 4737 36 3794
6704 8.31129 -2.10166 3.11323 70 67 61 1.4272 4 4073 21 4232 22 3416 23 3955 38 3474 39 3674 40 3805 59 3947 60 5470 58 4551
6702 8.48946 -1.98992 3.19821 82 80 72 1.13223 21 4227 39 3671 55 5270 60 5468 3 4108 4 4066 22 4244 38 3468
6701 8.31168 -2.13825 3.27484 117 116 113 0.960131 21 4197 38 3472 39 3199 59 3912 60 5433 3 4107
6696 7.6125 1.5879 2.58238 180 181 186 1.83858 22 4203 3 4101 39 3963
6695 2.86821 -0.346661 0.413783 106 104 98 1.72675 4 48 3 4099
6693 8.09124 -2.38385 3.41269 124 126 124 0.00107749 40 3212 3 4097
6690 8.20343 -2.21008 3.28971 120 119 116 0.868929 4 4071 21 4202 22 3393 23 3115 38 3454 39 3201 40 3309 55 5260 59 3913 60 5432 3 4094
6689 8.06308 -2.20675 3.23954 120 120 115 1.51738 4 4072 21 4182 22 3394 23 3114 38 3453 39 3198 40 3310 3 4093 5 3944
6688 8.46885 -2.11952 3.46793 108 107 104 1.01817 4 4055 22 4221 23 3939 38 3449 39 3638 40 3796 58 4816 59 4414 60 6220 3 4092 55 4834
6687 8.5533 -2.15584 3.56972 147 148 148 1.13959 4 4057 22 3391 39 3195 59 4383 60 6202 3 4091 39 3637 21 3262
6686 -7.14506 2.39668 3.58433 102 101 97 2.47936 29 5725 46 4351 30 4432
6685 8.3999 -2.15138 3.51089 105 106 106 1.67253 4 3330 22 3392 23 1969 39 3196 40 3208 55 4241 59 3855 60 5405 3 4090
6684 -1.44602 -7.33471 4.01348 82 82 76 1.04128 27 4210 44 3984 58 4449
6683 9.32057 -1.42254 4.02434 118 116 110 0.651527 4 4021 23 3918 3 4089
6681 -7.95134 1.62218 4.01999 98 96 89 1.24986 29 4142 30 3878 31 3989 32 3799 46 3938 47 3661 48 3483 49 3898 62 4547 63 4608 13 3908 57 5201
6678 -7.95134 1.62218 4.01999 98 96 89 1.24986 29 4141 30 3877 31 3988 32 3798 46 3937 47 3660 48 3482 49 3897 62 4548 63 4609 13 3909 57 5200
6676 0.385888 6.31497 3.80213 139 139 139 0.14978 35 5193 52 3119
6675 9.01479 -0.86289 3.79722 139 141 139 1.21827 22 3330 23 3882 37 3954 38 3445 39 3621 3 4087 60 5462
6668 8.15046 0.716279 3.17531 86 84 77 1.96421 22 4204 3 4081 54 3625
6659 7.30259 -2.5768 3.18615 97 94 85 0.104128 21 4121 3 4071
6656 9.12498 -1.93401 4.00877 80 78 72 0.482716 38 3448 40 3774 3 4067
6650 8.03195 0.666353 3.2714 130 129 126 0.529194 22 3257 55 4325 60 4584 21 3336 39 3083 3 4063
6645 7.91095 0.873767 3.09519 88 86 75 0.280909 22 4183 55 4533 3 4058
6644 7.91258 0.872677 3.0975 100 97 87 0.821352 22 4182 60 3297 3 4057 21 3352 38 3001 55 4532 20 3353 39 3071 2 3339 67 4093
6643 7.57091 0.872833 2.91521 112 108 97 1.44835 22 4181 37 3480
6642 7.75858 1.10697 3.08047 107 105 99 1.26715 22 3247 38 2964 55 4528 60 3292 3 4051 20 3347 21 3324 2 3334
6641 3.91884 -0.94365 -1.27133 206 206 206 1.35025 4 3208 3 4041 66 1203
6640 3.78815 -1.52534 -1.26971 211 211 213 0.23785 4 3160 3 4036 5 2842
6639 4.13878 -2.18459 -1.26534 203 203 205 0.920359 4 3112 3 4025 5 2781
6638 4.84139 -3.92617 -1.2647 130 130 128 0.117339 6 3280 3 4022
6637 4.87111 -3.79397 -1.22134 82 81 80 1.9799 59 3774 3 4020
6635 5.08951 -3.8283 -1.25352 85 84 80 0.88545 6 2610 3 4016 4 3106
6634 5.48298 -3.7138 -1.27415 50 35 29 1.93542 6 1193 3 4015
6633 7.74825 3.0964 -1.27765 102 102 94 0.178566 67 1438 3 4010
6632 5.22501 -3.80551 -0.898194 82 61 57 0.816355 5 2748 59 2695 66 1085 3 3998 4 3096 23 4423
6631 5.22777 -3.80853 -0.898691 82 61 57 0.867128 5 2747 6 2588 59 2694 66 1084 3 3997 4 3095 23 4422
6630 7.32335 -2.72684 -1.01674 48 30 25 0.556315 5 3902 3 3982 66 3983
6629 7.60306 -2.54516 -0.919517 55 31 25 0.281892 4 3943 21 5054 3 3980
6628 9.31445 -1.56376 -1.19525 34 34 34 1.58874 4 3949 5 3498 21 4644 22 4637 3 3975 67 5453
6627 -7.88726 1.75294 -1.17916 31 31 30 1.0299 12 3581 13 2890 14 3515 30 4284 31 4392 32 4201 62 5335 63 5412 64 3615 11 3690 11 4254
6626 10.0013 4.45373 -0.910364 107 105 83 0.412091 67 1368 3 3969 60 2118
6625 9.99227 4.50821 -0.909914 68 66 55 0.793917 20 4218 3 3967 21 3903
6624 10.4414 3.27489 -0.865825 43 45 38 1.30499 67 3608 3 3956
6622 5.69677 -3.68372 -0.405576 55 48 45 1.03912 4 1266 5 1101 23 3672 3 3946 22 3941
6619 5.2577 -3.88178 -0.358036 71 66 58 0.383569 4 1120 24 2494 3 3918 22 3906 23 1639
6617 5.5456 -3.84913 -0.292096 54 50 45 1.8288 4 3837 66 2568 3 3905 23 4347
6616 5.81484 -3.66968 -0.336754 32 33 32 0.109296 6 2501 3 3902
6612 6.19197 -3.33564 -0.338433 49 50 48 0.500618 66 942 3 3894
6611 6.29085 -3.33691 -0.284822 85 87 62 0.524084 5 2586 6 3187 23 3603 24 4022 59 2551 66 2552 3 3892 22 3894
6610 6.81713 -3.08755 -0.370949 73 70 52 0.522735 4 3827 23 3665 66 3434 3 3891 22 4584
6609 6.88641 -3.06086 -0.382039 76 70 55 0.985387 5 3443 3 3890 22 3892
6608 7.04076 -3.01155 -0.390294 125 124 122 0.417299 4 2887 6 3635 23 3663 59 3694 66 2661 3 3888 22 3890
6606 7.11156 -2.98974 -0.345834 145 147 138 0.738126 5 3356 23 3597 59 4227 66 3430 3 3886 6 3633
6605 7.21391 -2.84999 -0.327259 96 98 86 0.580729 4 2885 21 5482 66 2657 3 3885 22 4583
6604 7.41027 -2.89998 -0.439887 117 122 114 0.787129 4 3898 5 3439 23 4374 59 3692 66 2659 3 3884 22 4614
6603 7.42869 -2.85724 -0.28995 76 78 71 0.229628 23 3595 3 3882
6602 6.82033 -2.46418 -0.271432 51 53 48 1.61707 4 4379 3 3879
6601 8.00795 -2.59276 -0.339219 72 75 72 1.10848 4 2868 66 3414 3 3871 5 3348 23 3590
6600 8.28081 -2.10189 -0.358209 134 93 51 1.19583 4 3815 5 3848 21 3854 23 4328 3 3870
6599 8.62873 -1.99787 -0.287633 141 141 130 0.343357 4 3809 23 4327 3 3869
6598 9.35339 -1.6046 -0.330865 35 36 35 0.725649 4 3808 5 3790 21 4522 22 4573 23 4768 60 6026 67 5416 3 3863
6597 8.8457 -0.639319 -0.409234 119 125 120 1.53168 22 4565 60 5247 67 4817
6595 8.82491 -0.254662 -0.417953 142 149 144 1.74482 4 2989 22 3853 3 3846
6594 9.03211 -0.230502 -0.400125 38 39 38 0.197368 22 5007 60 1851
6593 9.76056 1.27088 -0.253588 85 87 74 0.720217 20 4738 60 3989 3 3825
6590 6.3404 -3.30519 -0.2351 48 47 43 1.18978 6 3106 3 3802 4 2892 59 1317
6589 6.58336 -3.22917 -0.14299 42 43 41 0.550795 4 2744 3 3796 5 3288
6588 6.95536 -3.17783 -0.105674 58 60 57 1.22544 23 4275 3 3795 22 2885
6587 7.24989 -3.17702 -0.182129 87 95 92 0.812599 4 3715 23 3506 3 3792 5 3354 6 3555 22 3812
6586 -6.88367 2.8934 -0.0378877 92 101 100 1.18338 30 3329 32 3380 12 4281 68 3828
6585 8.49335 -2.07281 -0.163233 148 146 135 0.849638 4 2719 22 3805 23 3499 3 3783
6584 8.95732 -1.83557 -0.0642158 121 118 107 1.09901 4 3703 5 3735 21 4474 22 4520 23 4264 3 3774
6583 -1.77283 5.1352 -0.123229 144 156 163 0.0560208 14 3830 32 4503
6582 9.33868 -1.15872 -0.0671888 131 131 122 0.12302 4 4307 23 4728
6580 9.10512 -0.476209 -0.167922 36 38 34 0.908886 4 4369 60 5099 3 3766
6579 8.77784 -0.281913 -0.0534922 44 46 39 1.43811 21 2760 2 2753 3 3763 67 4724 1 2842
6576 8.24521 0.349564 -0.119299 89 103 100 1.02675 21 3752 3 3757 2 2749
6573 9.79479 1.40374 -0.188001 43 45 42 1.39027 21 3747 22 4493 60 3984 3 3750
6572 7.58698 1.72472 -0.119113 103 100 90 0.510678 19 4995 67 3355 3 3748
6571 10.5475 4.06043 -0.124104 50 50 38 2.04059 19 3939 36 1360
6570 10.3271 4.13102 -0.121828 61 63 54 0.175639 60 3974 3 3736
6569 5.68992 -3.68364 -0.0217956 29 31 29 2.23196 5 2440 3 3722 23 4207
6567 5.65045 -3.69957 0.0469729 96 98 94 0.617598 66 473 3 3720 22 3685
6566 6.05334 -3.84532 -0.0593515 42 37 33 0.206794 23 4282 3 3719
6565 5.99255 -3.65513 0.0131678 61 66 63 0.601675 4 2601 6 2991 3 3715
6564 5.99034 -3.65345 0.0125647 68 73 69 0.77628 4 2600 6 2992 24 3873 59 2262 3 3714 5 2436 66 471 22 4463 23 3396
6563 6.13126 -3.5956 -0.0245813 132 139 131 1.92552 5 2433 23 2451 59 2402 66 465 3 3711 6 2235 22 3746
6561 6.26696 -3.67987 -0.0576184 86 90 87 0.648944 4 3725 5 3291 6 2993 23 3517 24 3928 59 3539 66 2410 3 3709 22 4462
6560 6.67026 -3.25081 0.0384566 118 113 101 0.950623 5 3184 3 3707
6559 6.84902 -3.1966 0.0295421 148 152 146 0.375556 5 3283 6 3497 23 3391 59 3452 66 3237 3 3704 4 3622 22 4451
6558 7.1956 -2.83772 0.0282798 113 113 106 1.32628 4 2591 5 2410 23 3387 59 3448 66 2396 3 3700 22 4444
6557 7.46311 -2.80661 0.123387 128 129 121 0.920988 4 3616 5 3181 23 4189 59 4085 66 3235 3 3699 22 3736 21 4935
6556 9.01462 -1.79145 0.118837 140 135 122 0.155033 4 3610 23 4185 3 3694
6555 10.6278 -1.06205 0.208717 46 39 30 0.919812 4 3606 22 4424 60 5891 3 3693
6554 10.609 -1.01493 0.207212 41 36 28 1.43477 23 4181 60 5016 3 3692
6553 8.90589 -0.382583 0.153748 34 35 31 2.45553 20 4607 3 3688 60 5009
6552 17.6891 2.31185 0.19835 83 91 82 1.5119 21 2738 22 2701 3 3679 4 2665
6551 7.5783 1.72329 0.0793031 103 100 90 0.961046 19 4456 3 3674
6550 10.7214 3.56704 0.109922 90 87 63 0.888089 19 2804 36 4835 3 3672
6547 6.15315 -3.31738 0.181949 138 144 143 0.580625 59 2257 3 3661
6546 -3.81255 4.02683 0.179589 137 143 140 1.14777 13 2359 14 2275 15 1958 33 2078 61 764 32 2280
6545 6.15315 -3.31738 0.181949 138 144 143 0.580625 59 2256 3 3660
6544 -3.81255 4.02683 0.179589 137 143 140 1.14777 14 2274 15 1957 33 2077 61 763 13 2360 32 2281
6543 7.08766 -2.86502 0.18125 111 113 105 1.358 5 3183 23 3325 66 3185 3 3659 5 3700 22 2660
6541 7.9162 -2.37085 0.23751 51 29 22 1.04248 5 3175 22 3677 23 3322 3 3656 21 4404
6540 10.234 -1.23421 0.405272 30 31 29 0.623643 21 960 3 3651
6539 10.2951 -1.24774 0.406688 27 28 27 2.00767 21 959 60 5837 67 5778
6537 10.3513 0.491381 0.495778 102 98 59 1.63848 4 4201 22 4373 60 3702 67 3148 3 3645 21 3579
6536 10.0519 0.372719 0.565338 59 47 37 0.835343 22 4374 60 4925 67 4556 3 3643
6535 9.39538 0.672045 0.370704 69 70 72 0.813809 20 4601 22 4907
6533 10.3235 0.720555 0.576597 55 49 35 0.506299 22 4370 3 3639
6532 9.07122 0.752899 0.397123 25 26 25 1.63018 19 4401 67 5232 3 3638 21 4384 2 4321
6531 10.0559 -5.38045 0.897628 12 12 11 0.826036 4 2447 5 2192 6 1963 23 2264 24 2929 59 2156 66 2271 3 3625 21 4322 22 3592
6530 10.3212 -5.23074 0.915534 48 44 36 1.5957 4 3549 6 3378 21 4847 23 3280 59 4033 66 3157 3 3623 5 3118 5 3660 22 4347 24 4258 66 3747
6528 10.4836 -5.08717 0.963864 26 23 18 0.881014 4 3545 5 3114 6 3375 23 3249 24 4256 66 3155 3 3621 21 4318 22 3586
6527 11.0173 -5.02971 0.817596 44 42 37 1.25188 4 3585 5 3113 21 4880 23 3277 59 3384 66 3153 3 3620 22 3650
6524 10.7266 -5.02032 0.92706 43 41 33 0.73303 4 3546 5 3115 23 3278 59 3385 66 3154 3 3617 22 3585
6523 11.3088 -4.82607 0.894704 42 41 35 0.837483 4 3544 5 3655 6 3769 22 4385 23 4108 59 4031 66 3745 3 3616 21 4844
6522 11.5039 -4.80792 1.00413 38 36 31 0.605382 4 3538 22 4343 23 4107 59 4029 3 3615
6521 11.3687 -4.74359 0.989984 37 35 31 1.00066 4 3539 6 3370 22 4342 23 4106 59 4028
6520 11.488 -4.70606 0.834646 29 26 21 0.727626 4 3583 23 3275 59 4026 3 3613
6519 11.4607 -4.69309 0.832042 30 27 21 0.708179 4 3582 5 3109 23 3274 59 4027 3 3612
6518 11.4882 -4.6969 0.905887 44 40 33 0.858008 4 3540 5 3108 22 3647 23 3273 59 4025 66 3743 3 3611 21 4310
6517 11.6823 -4.68239 0.920179 40 37 32 0.694015 22 3646 23 3272 3 3610
6516 11.6559 -4.66929 0.920325 40 37 31 1.85988 4 3536 5 3104 22 3645 23 3271 66 3740 21 4877
6515 11.5089 -4.66779 1.03294 45 44 36 0.736591 4 2439 5 3106 22 3582 23 3248 3 3608
6514 11.511 -4.66874 1.03414 45 44 36 0.95297 4 3537 5 3105 22 3581 23 3247 3 3607 4 2438
6512 8.11055 -2.286 0.603937 146 145 139 0.621728 4 3535 21 4307 22 3580 23 3245 3 3604 66 3738
6511 8.50921 -2.03157 0.515527 143 140 129 0.790144 4 3580 23 4103 3 3603
6510 10.1801 -1.25607 0.760146 37 30 17 3.47504 22 913 23 4067
6508 10.3527 0.49879 0.754378 108 105 67 2.9173 19 5183 60 4850
6507 11.1519 0.924252 0.913656 120 117 81 2.92025 4 4598 22 4325 3 3585
6506 10.0381 4.36662 0.84087 87 79 51 1.11149 3 3572 21 2487 36 3864
6505 9.63055 -5.61688 0.98765 62 61 55 1.54727 4 3552 6 2860 23 2212 59 3391 66 3102 3 3568 22 3596
6503 9.98155 -5.53099 0.940027 44 43 38 0.621206 4 3551 5 3120 23 3254 24 3779 59 3389 66 3159 3 3566 22 3593
6502 10.1097 -5.3889 0.943729 55 53 48 0.477468 23 3253 59 3388 3 3565
6501 10.0742 -5.3681 0.938628 54 52 46 1.08399 4 3550 5 3119 6 2857 23 3252 59 3387 66 3158 3 3564 21 4320 22 3588
6500 10.8188 -4.97886 1.10241 46 44 40 0.92177 6 3349 22 3584 59 3346 3 3563
6497 14.5379 -2.17615 1.71904 20 15 11 0.414504 21 3488 22 3539 3 3556
6495 9.17435 -0.723659 0.903326 54 49 37 3.01778 22 4833 23 672
6491 14.3548 -2.15047 2.11483 20 15 12 0.127524 21 3454 22 3499 3 3520
6490 14.1779 -1.95415 2.0993 19 13 9 0.424237 21 3452 67 5081 3 3519
6489 13.6569 -0.788149 2.06445 95 77 37 0.742117 4 3456 23 3995 60 4724 67 4312 3 3511
6487 11.4437 1.2762 1.35992 41 41 38 0.377759 67 2951 3 3507
6486 8.08046 -2.30109 1.23951 91 88 82 1.17465 4 3451 5 3047 21 4271 22 3460 23 3164 3 3501 21 3418 66 3086
6485 14.1639 -1.92161 2.43968 46 40 26 1.1876 4 3448 20 4388 21 3426 22 3458 60 4696 67 5059 3 3499
6484 13.8866 -1.26066 2.41602 66 56 32 0.857847 20 4386 21 3425 22 3456 23 3991 60 4688 3 3497
6483 7.89664 1.8857 1.19377 74 71 63 0.419099 19 2334 3 3495
6481 7.53418 1.69413 1.26929 112 110 103 0.831495 19 3538 3 3490 37 3680
6479 4.86578 -3.94589 1.21125 113 110 103 1.11879 25 3328 3 3485 22 3442
6477 4.97625 -3.89688 1.21288 109 107 102 0.349914 25 3325 3 3482
6475 4.94928 -3.90993 1.21209 110 107 101 0.0550095 25 3326 3 3480
6474 5.04835 -3.85612 1.21283 127 126 117 0.490888 4 2249 5 2088 59 466 3 3479
6471 5.06674 -3.79633 1.31978 136 135 132 0.77346 4 2241 5 2087 6 2796 24 2855 25 4157 41 3185 59 464 66 45 3 3476 22 2337
6470 8.24618 -2.22457 2.41819 114 113 111 0.906602 4 3438 21 3408 22 2336 23 3145 38 3059 39 2527 40 3352 3 3474 5 3027 59 3298 60 4656
6467 9.26408 -1.69444 3.06337 74 70 63 0.572735 37 3578 5 3019 55 3362
6466 8.45472 -2.04956 3.13141 68 64 57 0.863559 21 3392 22 3414 38 3037 39 3216 55 4890 59 3945 60 4556 3 3465 4 3423 5 3583 23 3112 40 3345 2 4139
6463 8.63335 -1.95333 3.12645 81 79 72 0.663727 21 3389 38 3049 39 3215 60 4554 3 3463 4 3422 5 3581 22 3411 23 3138 40 3826 2 4649
6459 8.90851 -1.12341 3.11315 60 57 50 1.24928 4 4080 23 3947 37 3967 39 3662 55 4962 60 4653 67 5024 3 3457 40 4120
6454 7.47027 1.45611 2.35137 137 135 131 0.775497 22 3365 55 3732 3 3449 39 2363
6453 7.79289 -2.40529 3.08696 64 59 50 0.93142 4 2169 22 2221 23 2024 38 2989 39 2411 40 3318 59 1940 3 3448 5 1966 21 3265 58 3865
6451 7.96851 -2.30672 3.1371 73 70 64 1.40988 21 3341 22 2216 38 2982 39 3202 59 1936 3 3446 60 4533 4 3392 40 3313
6448 8.06136 -2.25038 3.09435 105 105 100 0.79079 4 2160 22 2287 23 2017 39 2476 60 4534 3 3443 21 3345 38 2265 40 2504 58 3852 59 1935 5 3006
6444 8.27911 -2.14087 3.13066 85 83 76 1.15235 4 3391 22 3418 23 3116 39 3220 55 4891 59 3948 60 5471 3 3441 5 3585
6443 8.34205 -2.10143 3.25992 122 122 118 0.961479 4 3390 22 3412 23 2010 38 3470 39 3197 40 3307 58 4504 59 3910 60 5430 3 3440 4 4070 5 3943
6436 -8.09618 1.83732 3.69354 43 42 37 1.48004 14 4017 30 3098 31 3253 32 4397 47 3689 62 4575 63 4635 31 4014 48 3050 62 5604
6427 -6.82192 0.423752 2.93108 122 119 110 3.04426 12 2971 29 3449
6421 8.56719 -0.421561 3.264 132 132 130 1.01407 21 2189 22 3382 55 4348 37 3171 3 3423 60 4593 20 3215 4 4045
6419 8.55192 -0.241273 3.07948 89 87 81 1.35636 38 3045 55 4544 3 3421 4 4041 23 3911
6411 8.40809 -0.153473 3.12109 81 79 72 1.24479 37 3529 39 3184 3 3414 20 3402
6407 8.32498 0.0361302 3.09299 85 84 79 0.00881709 55 4338 3 3409
6405 8.28615 0.0961403 3.08995 84 82 76 0.25929 38 3041 55 4336 3 3407
6399 7.39325 -2.59433 3.09095 96 93 86 0.672551 4 3345 22 3397 23 3055 38 2916 39 3162 40 3320 59 3255 3 3399 21 4123 58 3886
6397 7.57126 -2.50034 3.09189 89 86 80 0.788286 4 3402 22 2223 39 2421 40 2516 58 3878 3 3397 21 3274 38 2992
6392 7.63252 -2.46916 3.09222 98 97 91 0.786551 4 3400 23 3120 39 2417 59 3253 3 3393 21 3269 38 2990 40 2521 58 3874 5 2958
6390 7.4925 -2.5609 3.08581 61 56 45 1.22397 22 2228 23 2033 39 2424 58 3883 3 3391 21 3279 40 2527
6389 7.5109 -2.53132 3.09038 103 101 95 0.181112 4 3339 38 2909 3 3390
6383 7.8146 -2.36886 3.25527 121 121 117 0.624144 4 3331 22 2213 40 2509 3 3386
6382 7.71215 -2.41956 3.25334 137 136 131 0.614944 4 3336 22 2215 3 3385
6379 7.81484 -2.39847 3.27325 125 125 120 0.730047 4 3335 22 2214 23 1973 3 3384 40 2470
6375 8.40752 -0.177098 3.24639 141 141 139 1.38685 22 3328 37 3168 55 4340 60 4590 4 4016 20 3213 21 3383 3 3381
6372 8.21904 0.313785 3.09168 43 39 33 0.446507 55 3700 3 3374
6367 8.16898 0.375588 3.08054 54 48 40 0.772239 22 2150 55 3698 3 3367 37 3513
6365 8.14809 0.394913 3.09472 74 73 68 0.173614 55 4543 3 3365
6354 8.08985 0.552619 3.08976 43 40 34 0.102777 55 3690 3 3356
6351 8.05687 0.555412 3.12756 64 61 54 0.638102 22 3304 37 3497 38 3012 55 4328 60 3310 3 3352 20 3373 54 3618
6344 4.90606 -3.89358 2.01251 143 140 135 1.07641 25 2213 41 2520 3 3338
6343 4.90885 -3.89604 2.01421 151 148 142 1.26126 25 2212 3 3337 22 2244 41 2519
6334 7.21828 -2.68366 3.09131 105 104 97 0.653499 4 3353 22 3341 23 3061 39 3168 40 3326 59 3261 3 3332 21 4127 58 3892
6330 7.19474 -2.7093 3.0858 53 48 41 0.748598 4 2134 22 2180 40 2534 3 3328 58 3005
6328 4.54705 5.74156 2.63276 53 49 43 1.87232 35 2453 52 2820
6326 7.07704 -2.7667 3.08881 59 53 45 1.09883 22 2182 23 1987 39 2343 40 2538 58 3008 59 1954 3 3325 4 2130 5 1991 21 3167 38 2166 41 3003
6323 7.09702 -2.72587 3.12052 58 56 50 0.451893 40 3215 3 3322 58 3894
6318 7.38326 -2.55366 3.23052 106 105 101 1.58476 21 3213 23 1977 38 2850 39 2331 40 2476 3 3319 41 2992
6317 7.45 -2.54052 3.24621 114 114 109 1.68228 22 2172 23 446 39 2326 40 2475 58 3597 59 2967 3 3318 21 3211 38 2904
6316 7.50417 -2.50105 3.23771 127 127 123 1.25166 4 3334 21 3210 22 2173 23 1976 38 3425 39 3160 40 2474 58 4507 3 3317 59 2966 59 3917
6314 7.60856 -2.45179 3.24389 118 117 112 1.61977 4 3332 22 2170 23 1974 38 2903 39 2327 40 2472 59 2964 3 3316 58 3596
6313 7.55607 -2.46994 3.2373 122 121 116 2.06009 4 3333 22 2169 23 1975 38 2905 39 2328 40 2473 59 2965 3 3315 21 3212
6311 8.24605 -2.47344 3.77291 61 61 59 1.81639 22 2166 23 413 39 2323 40 2428 59 2837 60 4461 3 3313 55 4211
6310 8.22038 -2.36875 3.70169 111 111 105 0.184037 21 3208 59 2836 60 4460 3 3312
6309 8.22038 -2.36875 3.70169 111 111 105 0.184037 21 3207 59 2835 60 4459 3 3311
6308 8.23262 -2.35461 3.74149 123 124 122 0.361878 21 3206 38 2902 40 3138 60 4455 3 3310
6307 -6.89797 2.55044 3.75678 111 111 106 0.93716 31 2098 32 1973 47 2271 56 3501 57 4510
6306 8.24542 -2.31476 3.7397 144 144 143 0.331004 4 3271 21 3205 22 2163 40 3137 59 2834 60 4456 3 3309
6305 -7.22239 2.48494 3.88086 51 48 43 0.826238 30 2990 46 3903 47 1143
6304 8.63778 -2.29302 3.91514 49 47 42 1.41373 4 2103 22 2162 23 410 39 2320 40 1260 58 3557 3 3308 55 3061 59 2822 60 4453
6303 9.17726 -1.94436 4.03793 89 88 82 0.543605 20 3174 40 3136 3 3307
6302 7.9474 -2.54095 4.00459 79 79 74 1.68913 41 3978 58 4458 21 4715 60 5381
6300 -7.79847 2.15032 4.0315 103 102 94 0.64562 30 2988 31 3202 46 3941 47 3164 62 4496 63 4565 48 2946
6294 9.28354 -1.82834 4.14565 103 103 98 1.07565 4 3270 20 4275 21 3259 22 3333 23 3002 37 3908 38 2978 39 3156 40 3134 55 4237 3 3305 60 4490
6290 9.32066 -1.7587 4.191 64 36 24 0.513297 4 3269 21 3258 22 2160 23 3001 37 3907 38 2977 39 2318 3 3304 55 4236 60 4489
6287 -8.00695 1.8013 4.14916 108 107 102 1.82238 29 4106 30 2982 47 3098 63 4557 32 3781 49 3899
6286 9.33757 -1.60095 4.13517 99 98 93 0.661743 4 3268 21 3255 22 3331 23 2997 37 3093 38 2210 39 2316 40 3131 55 4235 3 3303 60 4527
6285 9.32286 -1.61555 4.15967 53 32 21 0.463222 4 3266 21 2102 22 2159 23 2996 38 2207 39 2315 40 3130 55 3102 3 3302 60 2877
6284 -8.00117 1.88601 4.20346 43 26 17 1.02875 32 2960 48 3484 49 3900 48 2940
6282 9.33694 -1.68093 4.19038 69 41 26 0.452685 4 3267 20 4878 21 3256 22 3332 23 2999 38 2974 39 3155 40 3772 55 4234 3 3301
6281 9.32348 -1.63625 4.2019 76 45 29 0.388576 20 4273 21 2103 23 2998 3 3300 60 4487
6280 -7.99771 1.86506 4.2486 130 129 123 1.47503 30 1963 47 2268 62 560
6279 9.40691 -1.66875 4.28636 120 119 114 1.71076 22 2158 23 403 38 2183 39 3154 3 3299
6277 7.83296 1.03001 3.07632 51 47 40 1.22185 37 1266 54 4060 67 45
6275 3.73223 -1.40514 -1.26453 182 179 178 1.80251 4 1770 3 3269 5 1734
6274 3.68761 -1.30991 -1.26543 158 156 152 0.479774 4 1933 3 3268 5 1732
6273 3.73254 -1.19106 -1.26644 212 212 218 0.0190987 4 1922 3 3261
6272 3.7874 -1.17544 -1.26666 215 215 218 0.460611 4 3185 3 3260
6271 3.85793 -1.10534 -1.26645 203 204 204 0.463196 4 3184 3 3259
6270 3.84037 -1.34769 -1.26315 182 179 174 0.921226 4 3158 3 3219
6269 3.86448 -1.65613 -1.26788 181 180 179 0.527811 4 1549 3 3192 5 1471
6268 4.08197 -1.31757 -1.26495 192 188 184 0.161528 4 3136 3 3187
6267 4.38513 -0.417608 -1.27286 204 203 206 0.967537 4 3982 3 3181
6266 3.93021 -2.156 -1.26982 174 172 172 0.245622 4 1477 3 3174
6265 4.34082 -1.40988 -1.26452 204 206 209 0.170694 4 3121 3 3151 5 2804
6264 5.01903 -3.83706 -1.26419 136 138 136 0.28535 6 2611 3 3140
6263 5.09278 -3.80288 -1.09972 61 37 29 0.409305 5 1241 59 2739 3 3139 4 3101
6262 4.83001 -3.9639 -1.00887 153 153 149 0.132068 4 1372 6 1189 3 3130
6261 4.85562 -3.96133 -1.00999 159 159 157 0.309831 5 1220 6 1188 59 1579 3 3129
6260 4.97414 -3.90829 -1.01173 159 158 156 0.315733 4 1367 5 1218 59 1576 3 3128
6259 4.98875 -3.86864 -1.0051 159 160 157 0.548308 5 2749 6 2600 59 2728 66 1115 3 3127
6258 5.05034 -3.85408 -1.00827 162 162 159 1.06531 4 1365 5 1217 6 1185 66 1114 3 3126 59 2727
6257 5.0931 -3.80447 -1.0453 52 33 26 0.174543 59 1575 3 3125
6256 5.08635 -3.84171 -0.928747 133 134 127 0.397674 6 1161 3 3113
6255 8.12858 -2.28865 -1.25981 80 79 77 0.580549 4 3093 5 3513 3 3112 66 3542
6254 7.85887 1.21188 -1.14031 28 30 29 0.175941 19 3205 3 3107
6252 5.08497 -3.83878 -0.658787 143 143 138 0.514879 4 1309 5 1163 24 1556 3 3097 22 3071
6249 6.28931 -3.26158 -0.892986 85 52 43 0.679425 5 2725 3 3092 4 3076
6248 5.54173 -2.65901 -0.743548 83 48 38 1.66452 4 3075 3 3091
6247 6.28959 -3.22688 -0.888812 80 46 36 0.66345 66 1072 3 3090 22 3982 23 3721
6243 6.66396 -3.01518 -0.885705 79 44 33 0.267423 5 2718 3 3086
6242 6.6582 -2.97163 -0.878339 76 43 34 1.81197 23 3719 59 2681 3 3085 5 2717
6240 6.81548 -2.9746 -0.891857 73 41 32 0.656875 5 2715 3 3083 4 3070 22 3973 23 3717 66 1066 59 2679
6238 7.0187 -2.87553 -0.874439 52 32 25 0.653579 5 1185 23 1732 3 3078 4 1343 66 2759 59 2678
6237 8.39673 -2.1705 -1.02062 122 118 112 1.26747 4 1332 5 2738 3 3077 22 3083
6233 9.16069 -1.6896 -1.27432 129 128 126 0.483724 21 4645 3 3072
6232 9.87344 4.1836 -1.01687 51 49 44 0.623801 20 1773 3 3062 21 1748
6231 5.08351 -3.83865 -0.595436 162 161 159 0.496095 4 1307 24 1541 3 3058
6229 10.3265 3.95426 -0.777577 99 99 84 0.559805 19 1446 20 1742 36 3320 3 3049 21 1629
6228 10.3265 3.95426 -0.777577 99 99 84 0.559805 19 1445 20 1741 36 3321 3 3048 21 1630
6227 10.3772 3.99876 -0.767003 67 69 62 1.92948 19 3136 20 1740 3 3047
6226 5.08656 -3.84279 -0.392442 162 161 157 0.445487 6 1007 3 3041
6225 5.47363 -3.8742 -0.407741 66 59 55 2.01053 4 3014 5 2669 24 4029 3 3040
