# 3D point list with one line of data per point:
#   POINT3D_ID, X, Y, Z, R, G, B, ERROR, TRACK[] as (IMAGE_ID, POINT2D_IDX)
# Number of points: 648, mean track length: 3.35599
1984 -0.595147 -1.24549 -1.03449 145 92 42 0.391395 5 1708 3 561
1983 -0.54858 -1.24104 -1.03531 132 88 48 2.05086 5 567 3 560 4 518 6 1797
1982 -0.522618 -1.2321 -1.03259 150 102 52 0.188082 4 517 3 559
1981 -0.488841 -1.23427 -1.03543 133 87 41 2.29425 4 514 3 557 6 1834
1980 -0.484467 -1.23605 -1.03688 137 92 44 0.614321 4 513 5 650 6 1833
1979 -0.473391 -1.23008 -1.03506 150 100 52 1.66624 4 511 5 649 3 555
1978 -0.434675 -1.22701 -1.03553 119 78 40 2.26927 5 640 3 554 6 1866
1977 -0.430964 -1.22703 -1.03588 113 73 40 2.18869 5 639 6 1865 3 553
1976 -0.397148 -1.22334 -1.03567 122 83 40 1.0039 3 552 6 2325
1975 -0.381748 -1.21886 -1.03514 146 99 48 0.035481 5 632 3 551
1974 -0.365184 -1.21981 -1.03608 146 96 44 0.0250947 4 1887 5 1742
1973 -0.355038 -1.21552 -1.03471 145 98 47 0.248261 5 630 3 549
1972 -0.318338 -1.21125 -1.03482 151 103 51 2.27309 4 606 3 545 5 626
1971 -0.296843 -1.20861 -1.03463 151 107 53 2.49573 5 709 3 544 4 604
1970 -0.18867 -1.2004 -1.02658 135 82 38 0.242367 4 596 5 1774
1969 -0.18867 -1.2004 -1.02658 135 82 38 0.242367 4 595 5 1773
1968 -0.174418 -1.19938 -1.01431 127 79 40 0.361556 4 593 5 1771
1967 -0.174418 -1.19938 -1.01431 127 79 40 0.361556 4 594 5 1772
1966 -0.125158 -1.19475 -1.01337 130 77 36 0.0910106 4 592 5 1769
1965 -0.0973143 -1.19045 -1.02865 155 102 41 0.350423 4 591 5 693
1964 -0.109301 -1.18784 -1.00765 149 96 40 0.37783 3 535 5 1766
1963 -0.106385 -1.18794 -1.00174 130 81 41 0.663425 3 533 5 689
1962 -0.0435371 -1.18699 -1.00786 106 67 35 0.322566 4 1882 5 1760
1961 -0.430397 -1.23254 -0.996386 109 67 37 1.15119 4 454 5 561 6 2301
1960 -0.416497 -1.23224 -0.981856 107 71 43 1.10251 4 453 5 486 6 2299
1959 -0.21756 -1.20184 -0.994128 133 83 40 0.0680565 5 1739 3 511
1958 -0.186217 -1.20447 -0.969636 129 82 45 0.115067 4 440 5 548
1957 -0.13898 -1.19328 -0.987823 157 108 49 0.347671 3 508 5 1734
1956 -0.11713 -1.19534 -0.992189 151 102 48 0.234788 4 506 5 1732
1955 -0.120902 -1.19634 -0.979817 150 100 47 0.0938045 4 505 5 1733
1954 -0.103031 -1.18831 -0.993324 150 100 45 0.0287663 5 1731 3 505
1953 -0.104117 -1.18991 -0.974385 153 102 43 0.262719 3 504 5 1729
1952 -0.395769 -1.23237 -0.953931 108 70 40 1.16759 4 379 5 408 6 2280
1951 -0.379393 -1.22559 -0.945686 155 107 56 2.42681 4 378 3 477 5 405
1950 -0.300388 -1.21529 -0.943609 154 104 48 0.326437 5 469 3 476
1949 -0.266536 -1.21095 -0.952995 128 81 45 2.55879 5 1666 3 475 4 450
1948 -0.213002 -1.20543 -0.953248 130 80 41 2.5032 4 446 3 474 5 464
1947 -0.199695 -1.2065 -0.965844 158 107 49 0.117573 4 442 5 1699
1946 -0.199695 -1.2065 -0.965844 158 107 49 0.117573 4 443 5 1700
1945 -0.194473 -1.20361 -0.935825 156 107 51 0.00550861 5 1665 3 468
1944 -0.194473 -1.20361 -0.935825 156 107 51 0.00550861 5 1664 3 467
1943 -0.151002 -1.19747 -0.946804 131 82 42 0.265455 3 466 5 1661
1942 -0.125187 -1.19876 -0.960906 126 82 43 0.3309 4 437 5 1698
1941 -0.105147 -1.1975 -0.945715 119 77 45 0.199887 4 436 5 1697
1940 -0.0972316 -1.19719 -0.938978 147 100 46 0.0416181 4 433 5 1655
1939 -0.0460597 -1.18553 -0.950199 122 78 42 0.229676 3 455 5 2251
1938 0.685959 -1.07087 -0.913762 96 59 36 1.66955 19 324 3 433
1937 -0.619336 -1.25622 -0.939333 111 74 46 1.54178 5 1566 6 2226 3 420
1936 -0.622155 -1.25678 -0.937542 142 100 53 0.842758 5 331 6 1675 3 419
1935 -0.618767 -1.25745 -0.930127 113 76 50 1.52027 4 281 5 330 6 551 3 418
1934 -0.578273 -1.25211 -0.932215 120 81 47 0.67252 6 1670 3 415
1933 -0.562991 -1.22138 -0.914064 111 73 47 1.82363 19 297 3 413 4 1660
1932 -0.519731 -1.2479 -0.928561 109 69 35 0.529079 5 1562 6 1706
1931 -0.515029 -1.20136 -0.902565 149 102 56 1.76384 4 275 6 1666 3 409
1930 -0.433738 -1.19455 -0.907041 139 94 48 0.957892 4 270 5 320 6 1692
1928 -0.407939 -1.18004 -0.905913 124 77 41 0.347566 4 1647 3 405
1927 -0.354214 -1.17678 -0.90689 118 72 37 0.511817 4 255 3 404
1926 -0.345336 -1.17776 -0.905257 156 105 52 0.156738 3 403 5 393
1924 -0.337804 -1.18126 -0.906632 159 109 54 0.00790574 4 252 5 391
1923 -0.322079 -1.17608 -0.902832 138 86 47 2.55369 4 247 3 399 5 1609
1922 -0.263076 -1.1729 -0.904077 134 79 36 0.0366727 4 1640 5 1601
1921 -0.259477 -1.16739 -0.902206 136 82 39 0.235801 3 390 5 1599
1920 -0.257741 -1.17258 -0.891772 132 78 37 0.0963261 4 243 5 377
1919 -0.238622 -1.16924 -0.906559 152 97 45 0.0466272 4 370 5 374
1918 -0.234199 -1.16523 -0.905599 155 100 45 2.5036 5 373 3 383 4 368
1917 -0.249427 -1.16652 -0.902768 129 74 35 0.0440742 5 1602 3 382
1916 -0.253269 -1.16733 -0.892544 158 104 45 0.0277151 5 1598 3 380
1915 -0.202725 -1.17942 -0.913902 123 78 43 0.883501 20 1376 3 374
1914 -0.216553 -1.15733 -0.900419 144 86 39 0.0594165 4 365 3 373
1913 -0.20286 -1.16025 -0.902694 131 80 43 0.152154 3 372 5 1587
1911 -0.157636 -1.15532 -0.905423 154 100 47 0.0662025 5 450 3 366
1910 -0.139389 -1.15808 -0.893398 153 102 49 0.0323403 4 228 5 1583
1909 -0.139389 -1.15808 -0.893398 153 102 49 0.0323403 4 227 5 1582
1908 -0.139233 -1.15804 -0.890575 125 72 37 0.0225771 4 1619 5 1581
1907 -0.130188 -1.15293 -0.889222 120 70 35 0.0463824 5 350 3 360
1906 -0.090712 -1.14817 -0.890008 132 76 33 0.0444313 5 1576 3 357
1905 -0.0773375 -1.19073 -0.929973 103 65 37 0.0823964 3 356 5 1653
1904 -0.0608081 -1.15015 -0.895208 149 97 47 0.0208036 4 344 5 427
1903 -0.0532709 -1.14435 -0.890239 136 76 32 0.0746374 5 1645 3 351
1902 -0.0532709 -1.14435 -0.890239 136 76 32 0.0746374 5 1644 3 350
1901 -0.0177833 -1.19303 -0.906452 141 84 40 1.13715 4 333 3 337
1900 0.0319499 -1.12674 -0.892346 144 84 41 0.205806 4 323 3 328
1899 0.0384467 -1.14995 -0.897429 166 109 48 0.56028 4 1692 3 325
1898 0.172838 -1.11057 -0.89135 165 112 51 0.155344 4 296 3 276
1896 0.459503 -1.08712 -0.878251 187 144 106 1.31487 20 1000 3 233 2 1945
1894 -0.589058 -1.21063 -0.897088 116 80 53 1.7167 4 192 5 272 6 533 3 204
1893 -0.554069 -1.20839 -0.890914 156 108 57 0.550759 4 1598 5 1511 6 1667
1892 -0.498533 -1.19972 -0.891503 156 107 54 2.00619 4 191 5 270 6 1665 3 201
1891 -0.460679 -1.19212 -0.893534 131 88 55 0.806203 3 199 5 1554
1890 -0.454412 -1.19242 -0.893959 136 87 50 2.46533 4 266 3 195 5 319
1889 -0.450784 -1.19785 -0.890892 115 72 39 0.128439 5 317 6 1661
1888 -0.393534 -1.17861 -0.877717 148 94 50 0.156193 4 187 3 192
1887 -0.37505 -1.18219 -0.888614 149 98 55 2.63287 4 257 3 191 5 314
1886 -0.355994 -1.18026 -0.889011 143 88 46 2.31955 4 251 3 190 5 315
1885 -0.354082 -1.17327 -0.884245 174 119 55 0.182432 4 250 3 189
1884 -0.342487 -1.17877 -0.879534 146 87 44 2.5363 4 186 3 188 5 1541
1883 -0.331612 -1.18217 -0.878033 180 138 97 0.0143742 4 183 5 309
1882 -0.217484 -1.16279 -0.880037 112 67 38 0.00552007 5 1531 3 181
1881 -0.206759 -1.16589 -0.888919 157 101 45 0.00958249 4 233 5 1586
1880 -0.210619 -1.16231 -0.88284 155 97 42 0.285719 3 178 5 1530
1879 -0.14168 -1.15425 -0.886443 152 97 46 0.0803645 5 1580 3 174
1877 -0.661076 -2.27 -1.11133 165 119 71 3.44051 23 265 3 154
1876 0.0156494 -1.23181 -0.848182 153 126 101 1.68032 5 2140 3 146
1875 1.2586 -3.52329 -1.4488 86 65 49 2.89917 19 1691 3 138
1874 1.1429 -2.63086 -1.23851 99 70 52 1.20884 21 331 3 133
1873 1.05057 -1.26153 -0.880648 38 36 36 2.91183 17 957 3 121
1871 0.388479 -1.32955 -0.867015 158 125 95 1.91632 3 103 22 219
1870 1.09009 -1.2707 -0.836604 143 134 128 2.63486 20 954 3 77
1868 1.14999 -1.37251 -0.79939 19 19 19 2.16189 20 80 3 51
1867 1.85813 -2.72324 -0.915339 231 225 215 0.649112 19 120 3 44
1866 1.85694 -2.72211 -0.896601 232 227 217 0.231154 19 99 3 43
1865 -1.19191 -2.96985 -0.935749 105 108 107 0.20953 5 117 6 255 3 30
1864 -1.09923 -2.96412 -0.935616 130 134 136 1.83116 5 2400 21 77 3 29 20 62
1863 1.86295 -2.71862 -0.688545 170 168 164 0.167205 19 75 3 16
1861 -1.43356 -3.06181 -0.619827 162 163 165 0.695782 5 87 21 15 3 6
1860 -0.470156 -1.18143 -0.63297 153 154 157 1.37499 4 59 3 5
1857 0.0406299 -1.16365 -1.077 122 70 29 2.74121 3 2906 2 3825 4 2956 23 1897
1856 0.498137 -1.12589 -0.998977 160 107 48 1.50848 3 2905 2 3820
1854 1.837 -1.14252 -0.893224 165 162 162 2.89671 16 5432 2 3811
1853 1.50162 -0.945447 -1.24352 173 175 188 2.34115 20 2040 2 3806
1852 2.32444 -1.39429 -0.764537 79 86 94 0.921642 22 2441 2 3801
1851 1.98534 -1.16601 -0.564549 255 255 255 0.420893 21 2483 2 3800
1850 1.83028 -0.960158 -1.28052 175 177 188 2.21906 22 2838 2 3796
1849 1.83028 -0.960158 -1.28052 175 177 188 2.21906 22 2837 2 3795
1848 0.596686 -1.10837 -1.06199 81 51 26 2.47071 22 2796 17 5097
1847 0.304215 -1.14002 -1.32191 137 93 51 1.51467 3 2839 19 1847 20 1956 21 2339 2 3772
1846 0.289758 -1.14454 -1.05055 114 67 32 0.00106646 3 2854 2 3768
1845 1.53698 -0.975584 -1.25431 188 191 204 1.28042 22 2749 2 3767 21 2425
1844 1.79042 -0.967112 -0.969382 110 86 61 1.78149 16 5189 2 3765
1843 2.03406 -1.15114 -0.928567 165 164 164 2.47141 16 5259 2 3764 17 5089
1842 1.18874 -1.32936 -0.814387 182 189 201 1.3641 20 2013 23 1842 3 2863 19 1900
1841 1.79852 -2.66272 -0.569056 126 128 128 1.96877 23 1836 2 3753 3 2861
1840 1.99704 -2.57061 0.197766 248 248 249 2.358 21 2401 3 2858 2 3752
1839 2.04075 -2.50201 0.168567 219 213 198 0.842319 21 2439 22 2761 2 3751
1838 2.04075 -2.50201 0.168567 219 213 198 0.842319 21 2440 22 2760 2 3750
1837 1.53993 -0.977787 -1.65325 95 97 102 1.58745 21 2433 2 3749 16 5210 18 4389 17 4851
1836 1.53993 -0.977787 -1.65325 95 97 102 1.58745 21 2432 2 3748 16 5209 18 4388 17 4850
1834 0.321218 -1.13228 -1.04394 113 67 37 3.16414 2 3742 4 2923
1833 0.42338 -1.41264 -0.876321 70 70 72 2.21275 20 1936 4 2896 23 1769 19 1807
1832 1.84517 -2.81113 -0.80325 82 83 83 0.966738 19 1862 23 1841 3 2847
1831 2.00074 -1.132 -0.522173 255 255 255 2.58146 21 2404 22 2762 2 3718
1829 0.253794 -1.14729 -1.02723 157 107 49 1.68215 3 2811 19 1752 20 1812 21 2254 22 2565 2 3714
1828 0.312588 -1.13747 -1.0266 158 105 45 2.3884 19 1751 21 2253 2 3713 4 2907
1827 0.483265 -1.12218 -1.0313 137 86 37 1.11202 1 3516 3 2815
1825 2.05413 -1.55182 -0.568113 164 163 170 1.15042 23 1759 2 3690
1824 0.167439 -1.15718 -0.985496 116 73 38 1.75697 3 2758 4 2863 20 1810 2 3677
1823 0.105202 -1.12687 -0.902575 156 103 50 1.39337 19 1590 21 2029 2 3672 3 2741
1821 1.31542 -1.08763 -0.901258 178 175 173 2.65401 17 4636 2 3666
1820 2.03266 -1.18491 -0.905457 114 106 102 0.613178 16 4963 17 4406 2 3661
1819 1.06778 -1.68883 -0.868905 161 142 127 0.0941155 19 1668 20 1783
1818 2.2881 -1.29632 -0.632658 75 68 61 0.89597 1 3371 16 5059
1817 2.04182 -1.43474 -0.481756 255 184 203 1.68796 21 2120 22 2265 2 3635
1815 0.275366 -1.14351 -1.08079 152 93 31 1.54171 3 2705 19 1627 20 1589 21 2061 22 2385 2 3632
1814 0.275338 -1.14034 -1.05621 128 74 28 0.142973 4 2819 2 3629
1813 0.230908 -1.14733 -1.02941 150 101 52 2.05497 4 2849 21 2058 22 2381 23 1549 2 3627
1812 1.64319 -0.973405 -1.22995 141 98 51 0.424772 21 2261 22 2577 2 3626
1811 1.22828 -1.02668 -1.0808 163 112 58 0.929135 21 2259 22 2572 2 3625 20 1886
1810 1.22828 -1.02668 -1.0808 163 112 58 0.929135 21 2260 22 2573 2 3624 20 1887
1809 0.193229 -1.11565 -0.903537 158 103 52 0.703278 3 2681 2 3620 22 2369
1808 0.544701 -1.0751 -0.903655 170 112 48 0.910698 20 1692 21 2047 22 2362 2 3617
1807 0.942441 -1.02816 -0.898926 153 116 81 1.26833 19 1687 20 1798 3 2737
1806 2.03994 -1.13807 -0.94107 171 169 169 2.17717 16 4564 17 4628 2 3600
1805 1.12133 -1.13131 -0.864473 50 51 52 2.08561 16 5082 2 3592 17 4408 23 1502
1804 0.563734 -1.50561 -0.858119 168 145 125 2.33608 19 1564 20 1785 21 2150 2 3586 4 2857
1803 2.02577 -1.18402 -0.853707 95 93 91 2.13077 16 4794 2 3576 18 3905
1802 0.870931 -1.88204 -0.885308 161 143 129 0.686471 23 1491 2 3575 4 2854
1801 2.0042 -1.37465 -0.716686 183 180 180 1.56899 16 4950 2 3561
1800 2.00696 -1.12172 -0.613123 230 230 230 1.81376 16 3978 21 2223 22 2538 2 3555
1798 1.98826 -1.11738 -0.560652 125 127 128 1.77811 16 4759 21 2220 2 3549
1797 1.98833 -1.1172 -0.561869 137 141 143 0.227513 21 2219 22 2535
1796 0.113213 -1.16167 -1.28189 94 55 25 2.05644 3 2628 4 2824 19 1504 2 3536 13 4517 21 1645
1795 0.117668 -1.1614 -1.22197 156 102 39 1.4818 4 2822 19 1503 20 1593 21 1889 23 1265 2 3534
1791 -0.00940257 -1.17639 -1.03102 134 87 38 2.07602 5 2642 2 3529
1790 0.276758 -1.14686 -1.05975 144 85 32 0.92808 3 2704 20 1588 2 3528
1789 0.158439 -1.1692 -0.936122 137 84 36 1.29231 3 2700 2 3527
1787 0.162959 -1.15784 -0.925011 91 56 33 0.0315365 3 2682 4 2813
1786 0.240872 -1.10902 -0.903294 159 105 53 1.52848 19 1477 20 1566 21 1881 22 2179 2 3525 4 2809
1784 0.256361 -1.10982 -0.90391 159 104 51 0.530774 21 1880 22 2178 2 3523
1782 0.30188 -1.10182 -0.902945 165 108 51 2.17792 3 2675 19 1587 20 1565 23 1207 2 3520 22 2367
1781 0.445823 -1.08626 -0.90377 165 105 46 1.34561 19 1493 20 1696 21 1878 22 2177 2 3518 3 2672
1776 1.16253 -1.10178 -0.888683 87 72 59 1.126 17 4025 2 3499 18 3353
1775 1.28866 -0.956994 -0.89124 107 79 57 0.531922 16 4617 2 3498
1774 1.42776 -0.962517 -0.89943 116 81 46 3.39682 16 4610 22 2346
1773 1.12603 -1.15011 -0.881018 40 31 25 2.37165 20 1358 2 3486 19 1580 23 1193
1772 0.823183 -1.60267 -0.880677 237 237 240 1.4516 20 1784 2 3478 21 2149 22 2459
1771 1.04314 -1.59994 -0.879068 239 239 237 1.47452 19 1445 20 1657 21 2001 2 3474
1770 2.01189 -1.09199 -0.86156 78 71 67 1.69708 16 4093 17 3970 2 3470
1768 2.03539 -1.31344 -0.83685 66 58 52 2.82028 16 4544 2 3463 18 3295
1767 2.05131 -1.34516 -0.785237 66 67 71 0.574236 16 4789 2 3454
1766 3.19571 -2.32397 -0.770807 94 96 99 0.863705 1 3105 21 2320
1765 2.30998 -1.2916 -0.649784 197 199 201 0.0811772 16 4493 2 3442
1764 1.87134 -2.77413 -0.676615 218 206 197 0.444315 20 1772 2 3438
1761 0.878981 -1.06651 -1.41195 95 56 31 2.42974 3 2631 19 1628 23 1266
1759 0.116817 -1.16188 -1.15231 129 84 31 1.72883 3 2543 19 1053 20 1066 2 3415 13 3924 22 1474
1758 -0.0729932 -1.1748 -1.029 159 103 40 0.627198 3 2537 4 2638
1755 0.0260387 -1.17112 -1.03266 138 85 34 0.324021 4 2636 2 3408
1753 0.0768357 -1.17008 -1.03531 171 122 58 0.759639 3 2530 20 351 21 1205 2 3406
1752 1.46105 -0.972768 -1.23525 80 54 31 1.1673 16 4217 2 3405
1751 0.210373 -1.14641 -1.00085 104 66 36 0.237124 3 2524 4 2749
1750 0.210373 -1.14641 -1.00085 104 66 36 0.237124 3 2523 4 2748
1747 0.24158 -1.15607 -0.926492 97 60 32 0.874729 3 2679 2 3396
1746 0.274773 -1.08526 -0.90427 106 67 41 2.5031 23 246 2 3395
1745 0.336457 -1.11085 -0.914659 104 65 36 2.09326 3 2606 20 1699 2 3393 4 2741
1744 0.344672 -1.11096 -0.915346 114 73 41 0.743202 21 2052 2 3392
1743 0.153161 -1.1197 -0.881717 156 101 49 1.78785 3 2502 21 1142 2 3391 4 2598
1742 0.311283 -1.09951 -0.904051 162 105 48 1.6938 3 2500 4 2734 19 1314 20 1370 21 1622 22 1892 2 3390
822 1.43279 -0.96811 -0.910928 111 77 48 1.69723 21 1157 22 1905 1 3198
821 5.4572 -1.30207 -1.60432 107 100 90 1.43055 15 4845 16 4132 1 3187
820 5.45238 -1.30081 -1.6039 100 93 83 1.43257 15 4844 16 4131 1 3186 17 4098
819 5.44445 -1.25518 -1.60417 97 92 80 1.59912 15 4842 16 4129 17 4097 1 3184 18 3391
817 5.43788 -1.21016 -1.60344 110 103 93 1.84824 15 4840 1 3180 17 4095
816 0.414681 -1.3976 -0.874873 52 52 51 1.23793 2 3149 20 923 21 1089 22 1299 1 3178
815 0.542082 -1.51225 -0.887282 176 146 117 1.87444 2 3364 3 2455 4 2700 19 1280 21 1540 22 1833 1 3177 20 1309 20 1515
814 1.01807 -1.21385 -0.880801 148 126 108 1.96034 22 2139 1 3175 20 1530 21 1583
813 1.14464 -1.11277 -0.878026 28 24 21 1.88827 20 1556 21 1826 22 2133 1 3171
810 1.56132 -0.946448 -0.900329 130 101 74 0.936228 2 3494 16 4608 1 3162
807 1.12679 -1.11348 -0.855454 80 81 82 1.66804 19 1467 20 1526 22 2132 1 3152
806 1.23146 -1.08568 -0.860426 18 18 20 1.98788 2 3483 16 4812 23 1498 1 3151 20 1684
804 2.00754 -1.11109 -0.862262 132 124 120 0.893421 21 2020 1 3138 22 2326
803 4.61071 -1.8849 -1.05034 157 168 173 1.38506 14 5871 15 5108 1 3122
802 4.59551 -1.78259 -1.07793 27 29 31 0.951067 14 6461 15 5105 1 3121 16 4535
801 4.5824 -1.80066 -1.04787 157 163 171 1.24802 14 6207 15 4780 16 4537 1 3120
800 4.65711 -1.90803 -1.00043 121 126 128 1.49186 15 5097 16 4520 1 3119 14 5170
799 4.67628 -1.91536 -1.00302 133 139 141 0.896383 15 5098 16 4521 1 3118
798 4.54354 -1.78845 -0.975107 109 110 109 1.10666 15 5094 16 4519 1 3117
797 4.63324 -1.76344 -1.04747 155 161 170 0.791961 14 6451 15 5104 16 4086 1 3116
796 5.13626 -1.74121 -1.03277 99 98 95 1.87015 14 6450 15 5092 16 4024 1 3115 17 3333
795 4.5329 -2.27218 -1.00065 42 47 55 1.07746 2 3568 1 3114 16 4784
792 4.7805 -1.88601 -0.868606 108 82 61 0.05257 16 4512 1 3109
790 5.08475 -1.72905 -0.92884 110 110 108 1.1629 14 6194 15 4769 16 4023 1 3107
789 4.7017 -1.84266 -0.730633 50 56 60 1.12386 16 4510 1 3097 18 3839
787 1.3581 -1.20015 -0.674146 62 57 56 3.46995 20 1651 1 3094 2 3056
786 2.03547 -1.44375 -0.539425 246 162 177 0.259444 22 1099 1 3082
785 2.00346 -1.1201 -0.53944 255 255 255 0.551712 22 2627 1 3079 21 2311
784 1.82316 -0.96887 -1.81349 65 49 39 0.954456 21 1930 1 3063
783 1.871 -0.956211 -1.82389 66 65 64 1.32342 16 2946 1 3062 17 1542
782 2.02214 -0.938781 -1.82558 89 87 85 0.676918 16 3716 17 1510 1 3061
780 0.432168 -1.12451 -1.03419 141 96 42 2.09582 2 2886 3 2329 4 2643 19 1036 20 415 21 405 1 3058 17 2759
778 0.444861 -1.08816 -0.911023 98 62 35 2.15402 3 2238 1 3053 23 891
777 0.612932 -1.08283 -0.915297 106 68 41 1.9743 21 1619 3 1786 19 1689
776 0.64104 -1.05586 -0.90857 98 58 31 2.17557 20 995 1 3050 2 3175 22 376
775 1.49432 -0.991046 -1.07937 110 73 38 1.05837 2 3401 16 3595 20 1724 1 3049
774 0.662115 -1.06209 -0.910844 89 58 35 0.256904 1 3045 3 2307
773 2.01957 -0.92831 -1.14337 88 62 37 1.82175 16 2676 1 3043
772 0.66292 -1.06013 -0.882386 104 60 35 0.998656 20 994 1 3036 22 1351 2 2781
770 5.07247 -1.71552 -1.75139 35 36 37 0.210101 15 4871 1 3032 14 6294
769 5.26862 -1.40584 -1.774 73 70 63 1.99183 15 4868 16 3544
766 1.35818 -0.976464 -0.901974 143 104 67 2.45647 20 1576 1 3022 2 3497 16 4616
764 4.66808 -1.69514 -1.6426 26 27 28 2.23556 15 4872 1 3020 14 5933
762 4.35424 -1.30375 -1.40152 105 111 117 0.619088 14 5915 15 4370 16 2598 1 3016 17 941
761 4.38397 -1.26751 -1.43887 78 76 70 2.55514 14 5914 1 3015 15 3685
757 1.08096 -1.19052 -0.880896 42 41 42 1.76131 2 3360 20 1558 1 3007 3 2482
756 1.1145 -1.16481 -0.878314 222 216 207 1.15731 2 3357 19 1579 20 1359 21 1578 1 3006 3 2662 23 1195
755 1.23025 -1.0957 -0.885965 142 106 76 0.134693 2 3157 1 3005
754 1.46782 -0.964848 -0.903263 129 107 89 1.13149 16 4143 1 3002 2 3367
752 4.34567 -1.18616 -1.23235 83 82 79 0.20119 14 5906 1 2993
751 0.649449 -1.48048 -0.874644 227 225 228 0.623565 3 2582 4 2696 1 2992
749 0.673956 -1.47233 -0.874308 239 239 240 0.661572 2 3128 3 2454 4 2695 19 1276 20 1304 21 1535 22 1829 23 857 1 2989
747 1.22817 -1.10163 -0.866772 48 50 49 1.98793 2 3355 20 1552 21 1130 1 2977 22 1858
746 0.857355 -1.60988 -0.872833 246 245 241 1.74527 2 3344 3 2574 1 2973 21 1532
744 2.0198 -1.09438 -0.861941 154 143 135 1.60402 21 2019 22 2469 1 2960
743 2.02426 -1.08413 -0.867265 250 251 252 1.59012 22 2468 1 2958 21 2013
742 5.15098 -2.21989 -1.25292 89 88 85 1.70907 15 5121 1 2956
741 4.59468 -1.75192 -1.10393 73 72 70 1.44042 15 4781 16 4087 1 2952
738 5.05415 -1.08576 -1.06383 32 31 26 1.67911 14 5161 16 4082
737 1.16382 -1.3523 -0.811566 51 53 56 0.787521 19 1429 1 2942 2 3317 3 2567
736 1.32801 -1.31953 -0.809305 131 111 103 1.13576 2 2660 1 2941 23 69
735 1.32972 -1.32219 -0.809814 131 114 104 1.35372 2 2659 19 1251 1 2940 20 1505
734 1.36718 -1.34216 -0.808426 46 43 40 2.55298 20 1859 1 2939
733 5.08579 -1.7859 -1.02854 100 100 97 0.990539 14 5870 15 4770 16 4026 1 2919 17 3968
732 1.15057 -1.33704 -0.778572 36 36 36 0.645579 20 1495 21 1021 1 2918
731 1.14596 -1.30207 -0.743839 42 42 43 0.782264 2 3290 19 1557 20 1494 1 2917 3 2643
730 2.10602 -1.33834 -0.80786 104 107 110 2.01653 2 2654 1 2915
729 3.9108 -2.03088 -0.940939 33 36 39 0.0840028 16 4034 1 2911
728 3.76241 -1.97476 -0.905802 148 150 153 1.79802 2 3298 16 4033 15 4775 17 3974
727 1.14337 -1.27778 -0.719171 39 38 39 1.24175 2 3282 19 1423 1 2904 3 2562
726 2.00637 -1.39727 -0.701447 181 103 109 0.850462 2 3276 16 4514 1 2903
725 4.60773 -1.78011 -0.736896 52 56 60 0.38276 15 4735 16 4003 1 2894
724 4.66382 -1.85594 -0.709312 166 167 168 2.25714 14 6164 15 4738 16 3975 1 2893
723 2.03643 -1.27754 -0.63274 86 81 74 0.828124 2 3267 1 2889 17 3892 18 3234
722 2.17459 -1.07132 -0.649411 164 166 167 1.98506 15 4741 16 3330 1 2883
721 4.62266 -1.84679 -0.676529 125 126 125 0.399651 15 4737 16 3974 1 2878
719 2.01535 -1.11209 -0.567967 107 104 102 1.24646 22 2271 1 2874 2 3262 21 1966
718 2.0283 -1.09389 -0.575373 246 247 247 2.41635 17 3211 22 2432 1 2873 2 3261 21 2124
717 2.04316 -1.56198 -0.564265 131 136 138 1.10586 20 1768 21 1969 1 2871 2 3264 22 2275
716 5.19368 -2.28396 -0.116767 96 72 53 1.45238 14 6383 15 5013 17 3766 1 2865 16 4403 18 3713
715 5.19183 -2.28304 -0.115808 102 77 57 0.933378 15 5014 17 3765 1 2864 16 4404 18 3712
714 0.561506 -1.10697 -1.25099 109 66 35 1.13764 2 2330 3 1991 19 456 21 489 22 637 1 2859
713 0.457025 -1.12115 -1.18917 93 58 30 0.636793 4 2493 1 2857
712 0.459902 -1.1211 -1.18139 90 56 32 1.94677 3 937 4 2491 1 2856 2 2298
711 0.459902 -1.1211 -1.18139 90 56 32 1.94677 3 936 4 2492 1 2855 2 2297
710 0.452495 -1.12225 -1.17458 88 55 32 2.36753 3 847 4 2072 1 2853 2 868
708 2.05193 -0.93669 -1.81383 46 43 41 1.0564 16 3715 17 1509 1 2850
707 0.43848 -1.12425 -1.14993 122 76 35 2.37695 3 1946 4 2488 1 2848 2 2270
706 0.461863 -1.12236 -1.15829 122 76 35 1.17622 2 2269 3 1945 1 2847
705 0.405146 -1.12626 -1.03454 149 96 42 1.30776 2 2156 3 1872 4 2455 20 418
704 0.428782 -1.12318 -1.05941 133 82 33 1.17876 2 2154 3 1871 4 2469
703 0.41334 -1.12757 -1.03507 131 82 38 2.6357 2 2155 3 1870 4 2454 1 2839
702 0.425116 -1.12643 -1.03535 144 94 43 2.60621 2 2153 3 1869 4 2452 21 406 1 2838
701 0.443014 -1.12195 -1.03485 161 109 45 1.27864 2 2151 3 1868 4 2451 19 399 20 413 21 404 22 486
700 0.452582 -1.12037 -1.03427 137 91 42 2.10858 21 403 22 485 1 2836
699 0.458936 -1.1215 -1.03483 158 104 43 2.03388 2 2884 3 1866 19 1035 21 402 22 484 1 2835 20 1063
698 0.485661 -1.1187 -1.0353 177 124 53 1.69036 2 2883 3 2327 19 1034 20 1061 21 400 22 483 1 2834
697 0.413771 -1.12968 -1.00345 146 97 43 2.05123 2 2123 3 1819 4 2435 20 337 1 2833
696 0.413809 -1.1295 -1.00332 143 94 43 1.84227 2 2124 4 2436 20 338 1 2832
695 0.512036 -1.11406 -1.03407 158 113 56 1.30112 2 2872 3 2326 17 2731 19 1033 20 1060 21 1200 22 1431 1 2830 23 315
693 0.577268 -1.10685 -1.03434 165 114 54 0.958925 2 2871 3 2323 19 1031 20 409 21 1199 22 1430 1 2828
692 1.48422 -0.998526 -1.25643 107 68 40 1.65818 2 2902 20 1403 22 1929 1 2827
690 0.740401 -1.08608 -1.0335 165 115 54 1.05443 2 2869 19 1029 20 1056 21 1196 22 1426 1 2825 3 2322 23 311
689 1.64672 -0.975204 -1.23671 121 84 52 0.131379 2 3215 1 2820
688 1.49043 -0.988452 -1.18909 130 83 41 1.98543 2 3210 21 1642 22 1916 1 2818
687 1.49077 -0.988828 -1.17708 119 78 40 1.31697 2 3209 16 3627 20 1726 21 1641 22 1915 1 2817
686 1.47592 -0.995607 -1.15781 111 73 40 1.27263 2 3206 16 3628 20 1727 21 2062 22 2495 1 2816
685 0.42641 -1.09304 -0.91159 93 58 31 1.26802 2 387 21 1621 1 2815
684 0.427567 -1.08995 -0.906548 152 98 45 2.15718 2 2798 19 332 21 340 1 2814
683 1.49188 -0.990896 -1.12113 113 73 36 1.11225 2 3205 16 2763 20 1590 21 1639 1 2811
681 0.602423 -1.06616 -0.905923 150 92 43 1.18325 19 994 20 997 21 1164 1 2805
680 4.17111 -1.34141 -1.83488 17 17 17 0.849983 14 5468 15 4439 1 2803 16 3590
679 4.5713 -1.17165 -1.83163 16 17 18 1.22068 14 3281 1 2801 16 3571
678 0.460914 -1.06974 -0.872993 164 124 89 1.7975 21 1591 1 2800 3 2597
677 0.707005 -1.05156 -0.904453 159 101 47 1.04117 20 1361 21 1617 22 1888 1 2796 19 1325
676 0.764384 -1.04857 -0.910673 95 59 34 0.254031 20 1026 1 2795
675 0.782938 -1.05624 -0.913371 102 65 41 1.76683 19 1485 1 2794 2 358
674 0.7858 -1.04742 -0.910569 104 64 37 1.93228 22 1376 1 2793 2 2791 3 427
673 1.4935 -0.991338 -1.05487 124 84 41 1.08785 2 3191 16 3591 20 1723 21 1886 1 2789
672 1.8119 -0.660679 -0.982451 31 31 32 1.83555 15 2756 1 2785
671 0.441104 -1.23122 -0.869719 113 114 114 1.54788 3 1565 1 2783
670 0.925702 -1.02477 -0.908497 111 71 41 0.361417 1 2780 2 1937
669 1.03303 -1.01328 -0.904249 161 110 58 0.393593 20 1386 21 1612 22 1882 1 2779
668 2.05776 -0.919897 -1.08292 60 41 27 0.0798616 15 5325 16 2634 1 2778
667 2.0718 -0.924846 -1.04243 69 50 31 1.36392 15 4898 16 3519 1 2777
664 5.39963 -1.03023 -1.62294 103 98 87 1.14341 15 2595 1 2771 14 3175 16 1039
663 0.888868 -1.03175 -0.882396 139 86 46 0.367489 21 1160 22 1373 1 2766
662 1.11605 -1.00385 -0.904144 164 111 57 0.62528 20 1384 22 1881 1 2765
661 4.49564 -1.33039 -1.4075 27 28 29 0.997284 14 6284 15 4369 16 2596 1 2761
660 5.49638 -1.42303 -1.63588 76 73 65 0.454357 15 2609 1 2757 16 2595
658 5.45021 -1.45613 -1.56288 53 49 40 1.00237 15 3676 16 2590 1 2755 14 5277
657 5.45309 -1.41307 -1.56449 58 55 44 0.911824 15 3673 16 2589 1 2754
656 5.44547 -1.3675 -1.5652 49 45 37 0.80156 15 3672 16 2588 1 2753 14 5275 17 2469
648 0.41768 -1.39786 -0.869403 107 106 106 0.791518 2 2736 22 218 1 2745 21 178
647 0.428631 -1.44396 -0.868945 88 89 87 0.93566 19 164 22 217 1 2744
646 0.452012 -1.43682 -0.8752 163 133 106 1.63855 2 1894 20 102 21 176 1 2743 3 1552 19 163
644 1.06796 -1.17762 -0.886361 116 82 59 0.297432 2 3159 1 2737
642 0.574401 -1.49789 -0.874302 60 57 52 0.618072 21 173 22 1296 1 2725 4 130
641 0.568572 -1.49969 -0.870863 117 117 115 1.17877 2 2708 19 162 20 101 21 174 22 216 1 2724
640 0.574937 -1.50538 -0.861448 153 130 110 1.16119 2 2707 21 170 1 2723 4 2254
639 0.682786 -1.47391 -0.875309 64 59 58 0.471974 2 2706 3 1544 4 1557 19 159 20 920 1 2722 21 169
637 1.52144 -2.42873 -1.15269 158 129 103 1.49619 19 960 1 2715
636 1.11397 -1.15137 -0.863213 76 77 77 1.39625 2 3143 19 1471 20 1328 1 2711 22 1861
635 1.17868 -1.09852 -0.84051 99 103 106 0.190784 20 1325 1 2708
634 2.00314 -1.09775 -0.916543 170 159 144 1.86919 16 3466 1 2705
633 1.14413 -1.32497 -0.832755 192 177 154 0.701229 2 2689 20 1294 21 1526 22 1814 1 2693 3 2448 23 115
632 1.31822 -1.29258 -0.833035 214 207 201 1.05688 2 3338 21 1525 1 2692
631 2.01785 -1.10634 -0.849879 208 205 201 1.3472 16 3435 21 2018 22 2322 1 2688 2 3325 18 850
630 2.01787 -1.10634 -0.849999 220 218 214 1.21193 16 3436 21 2017 22 2321 1 2687 2 3324
629 5.1092 -2.18562 -1.20621 86 47 33 0.470055 2 3322 15 4353 1 2682
628 1.2554 -1.32822 -0.800898 184 190 194 0.701517 2 3085 19 1252 20 1291 21 1496 1 2677 23 821
627 1.33849 -1.32443 -0.79993 242 245 245 1.1314 2 3084 19 1427 21 1017 22 1223 1 2676 20 1503
626 1.91589 -1.4792 -0.864717 119 207 230 1.05978 21 1053 22 1253 1 2674
624 2.03895 -1.44869 -0.849616 86 76 66 0.593983 20 1660 1 2669 21 1782
623 2.01587 -1.10601 -0.835132 178 175 169 2.71531 2 3098 1 2660 16 3434 18 848
622 2.01587 -1.10601 -0.835132 178 175 169 2.71531 2 3097 1 2659 16 3433 18 847
621 2.02233 -1.09853 -0.839948 116 97 84 1.72058 2 3323 21 2014 1 2658 17 3341 22 2320
620 4.58603 -1.80631 -1.07219 25 28 30 1.48558 14 5892 16 2429 1 2645
619 4.68063 -1.94208 -1.038 36 39 41 1.2231 15 4313 16 3396 1 2644 14 5873
618 1.104 -1.35037 -0.768601 43 42 44 1.33306 19 887 1 2643 3 2152
617 4.12241 -1.9724 -0.921604 81 128 160 0.68089 2 3071 15 4774 1 2638
616 4.58845 -1.79312 -0.831421 224 227 229 2.14497 16 3368 1 2634 18 807
615 1.09766 -1.27121 -0.703059 33 34 36 0.537637 2 2619 20 1282 1 2631 3 2426 19 1244
613 1.11091 -1.27619 -0.709559 42 43 43 0.809653 20 876 1 2629 21 1001 22 1769 19 885 3 2140
612 2.03647 -1.09383 -0.680283 87 86 83 2.08861 22 2288 1 2625 2 3053 21 1758
611 4.59803 -2.24746 -0.732249 53 59 64 0.761039 14 6167 15 4740 1 2624
610 5.09783 -2.25735 -0.773157 138 139 143 1.67489 15 4232 1 2621 2 3271 14 5839
609 4.75517 -1.7913 -0.738611 118 123 127 0.924208 15 4732 16 3365 1 2618
608 2.01802 -1.28989 -0.648656 203 191 189 1.61788 2 2598 21 1753 1 2613
607 2.04329 -1.26688 -0.638101 77 72 66 0.882073 16 3983 1 2612
606 2.07341 -1.5579 -0.570311 58 56 52 0.655085 16 3941 17 3215 22 1721 1 2601 18 3184
605 2.07284 -1.55728 -0.570647 86 82 79 0.574667 16 3942 17 3214 20 1480 21 1450 23 1132 1 2600 2 3040
604 2.03875 -1.22606 -0.61427 232 233 232 1.21039 2 3047 21 1749 1 2598 16 3261
602 2.03543 -1.09308 -0.56563 132 132 129 1.34221 22 2055 1 2595 2 3032 21 1738
601 2.17872 -1.07594 -0.59714 203 203 204 1.39398 15 5067 1 2594
600 2.16069 -1.09912 -0.574453 211 210 210 2.4782 16 3256 17 2173 22 2269 1 2593
599 0.435489 -4.08939 -0.606699 92 92 94 0.245605 4 2219 1 2591
595 1.89384 -2.59035 -0.530057 216 171 118 0.282308 21 1453 22 1716 1 2587 2 2579 20 1263
594 1.89398 -2.59066 -0.530187 216 171 120 0.34882 3 2411 19 1411 21 1452 22 1715 23 1134 1 2586 2 2578 20 1262 20 1484
593 2.44544 -2.54802 -0.461086 168 168 168 2.30738 3 2555 1 2585 17 3801 18 3754
592 2.01591 -1.11251 -0.547903 152 149 144 1.89521 21 1741 22 2049 1 2578
588 0.752064 -1.08336 -1.36151 125 77 38 1.09118 2 2399 3 2070 19 482 1 2557
587 0.447408 -1.12248 -1.20126 74 45 26 0.0420237 4 2123 1 2550
586 0.518539 -1.11413 -1.23876 92 55 30 0.465908 3 1005 1 2547 2 2331
585 0.637316 -1.09735 -1.29606 101 60 32 0.767361 2 2358 3 2025 19 463 20 458 1 2544
582 1.75407 -0.979385 -1.76714 67 43 29 0.638516 21 1359 22 1614
581 0.564518 -1.10814 -1.23989 120 72 33 0.712008 2 1046 3 1003 1 2532
580 0.564518 -1.10814 -1.23989 120 72 33 0.712008 2 1045 3 1004 1 2531
579 2.05018 -0.930223 -1.83163 43 43 41 1.41208 17 1508 1 2528 18 1422
578 0.521031 -1.11411 -1.1717 91 56 32 0.863505 2 863 3 843 1 2523
577 0.568041 -1.10814 -1.18818 92 55 29 0.627392 2 858 1 2522
576 0.570868 -1.10735 -1.17877 136 85 39 0.662266 2 2266 3 1944 20 432 1 2521
575 0.452314 -1.12241 -1.1159 98 59 33 2.14725 2 757 3 761 4 2016 1 2519
574 0.461518 -1.12148 -1.10915 120 72 33 2.13121 2 2221 3 760 4 2015 1 2518
573 0.461608 -1.12289 -1.11007 125 75 34 1.38981 2 2222 3 759 1 2517
572 0.589803 -1.10513 -1.18135 120 72 32 0.483061 2 854 3 840 1 2516
571 0.643297 -1.09818 -1.17954 107 64 33 0.706112 2 2265 3 1943 20 431 1 2515
570 0.642835 -1.09839 -1.17011 99 60 32 0.618881 2 2264 3 836 1 2514
569 0.469037 -1.12184 -1.05942 95 55 28 0.914247 2 629 3 595 1 2509
568 0.481351 -1.11981 -1.07694 114 66 27 1.00912 2 697 3 694 1 2507
567 0.484182 -1.11906 -1.07574 86 54 31 0.807969 2 696 3 692 1 2506
566 0.595691 -1.10426 -1.10112 107 65 36 1.11932 2 2186 3 1906 20 422 22 580 1 2505
564 0.418462 -1.12645 -1.03536 124 78 37 1.7208 4 2453 1 2503 3 599
563 0.435118 -1.11234 -1.0299 168 115 49 1.97391 22 1433 2 2885
562 0.440755 -1.12451 -1.04497 74 46 27 0.397297 1 2501 4 1966
561 0.464704 -1.12271 -1.0459 92 55 28 1.3254 2 2150 3 1865 1 2500
560 0.470404 -1.12184 -1.04542 101 59 30 1.13639 2 627 3 593 1 2499
559 0.492776 -1.11839 -1.03637 148 99 44 1.14463 2 620 3 592 1 2498
558 0.604049 -1.10358 -1.08865 102 61 33 0.635812 2 691 3 691 1 2496
557 0.604049 -1.10358 -1.08865 102 61 33 0.635812 2 692 3 690 1 2495
556 0.419365 -1.12855 -1.00589 91 57 30 0.372524 1 2493 4 1897
555 0.506704 -1.11923 -1.03716 139 87 37 0.133378 2 2122 1 2492
553 0.539733 -1.11163 -1.03574 153 103 46 1.20979 2 561 3 589 22 480 1 2490
552 0.553545 -1.11031 -1.03582 149 99 44 0.406048 2 2119 3 586 1 2489
551 0.59445 -1.10413 -1.03484 156 103 46 1.11146 2 2118 3 1862 19 396 21 396 1 2488
550 0.602551 -1.10313 -1.03474 155 104 48 1.064 2 2117 3 1861 19 395 22 478 1 2487
548 2.07789 -0.923554 -1.40338 58 43 32 1.17541 15 3902 1 2484
546 0.634194 -1.09944 -1.03474 156 108 49 0.974695 2 2115 3 1859 19 392 20 406 22 477 1 2473
545 0.70343 -1.09031 -1.03395 154 104 49 0.779219 2 2111 3 1855 19 387 20 400 21 390 22 474 1 2472
544 0.71606 -1.08953 -1.0345 160 109 49 0.778446 2 2109 20 1058 21 389 22 473 1 2471 3 1853
543 0.731631 -1.0868 -1.03404 172 121 55 0.465413 19 386 20 1057 22 1427 1 2469 21 1197
542 1.28444 -1.01718 -1.18763 107 70 37 1.2147 22 1918 1 2466 2 2903 16 3647
541 0.48127 -1.12499 -0.966898 154 106 48 0.873127 2 2087 3 485 1 2462
539 0.879983 -1.06959 -1.03485 156 105 50 0.703513 2 2085 3 1850 22 561 1 2457 20 397
537 0.926462 -1.06517 -1.0351 147 102 54 0.310278 2 2083 1 2455 3 1846
536 1.21477 -1.0283 -1.10303 148 112 65 0.845354 16 1408 20 1065 21 1218 22 1472 1 2454
535 1.21477 -1.0283 -1.10303 148 112 65 0.845354 16 1407 20 1064 21 1217 22 1471 1 2453
534 1.49182 -0.991521 -1.15097 114 73 37 1.1805 2 2867 16 1364 20 1592 21 1640 22 1914 1 2452
533 0.636997 -1.1041 -0.977606 109 72 42 0.519763 2 430 3 482 1 2448
532 0.773546 -1.08654 -0.986602 159 111 58 0.9024 2 2023 3 1806 19 350 1 2447 20 336
531 2.02484 -0.927778 -1.25364 80 59 41 0.47196 16 1289 1 2446
530 0.431337 -1.09338 -0.879348 163 120 79 0.119709 2 1948 1 2444
529 0.441246 -1.0905 -0.881728 117 71 40 0.0993142 2 349 1 2441
528 0.500841 -1.1264 -0.926637 93 56 30 1.7417 2 1970 1 2440
527 0.491892 -1.08162 -0.896533 124 78 45 0.772415 2 383 3 229 1 2438
526 0.497551 -1.08045 -0.896578 119 72 41 0.930799 2 381 3 228 1 2436
525 0.643948 -1.109 -0.926532 89 53 27 1.1806 2 1963 1 2429
524 1.48914 -0.990301 -1.09142 93 60 32 0.884377 2 2855 16 2729 1 2428
523 1.47864 -0.99531 -1.06451 68 44 27 1.56788 16 1290 1 2427
522 4.58788 -1.17213 -1.81737 39 39 39 1.38369 14 5427 15 2754 1 2426 18 1127
521 0.631997 -1.06237 -0.905719 160 105 54 0.999123 19 327 21 335 22 1378 2 1962 3 2235 20 996
520 0.675905 -1.05931 -0.89457 147 95 49 0.478365 2 1941 1 2419
519 0.702484 -1.06059 -0.911792 111 66 34 0.0253294 2 1960 22 373
518 0.728402 -1.05157 -0.906079 149 93 44 0.537621 19 323 20 241 1 2416 3 1634
516 0.789968 -1.04218 -0.90926 100 59 31 1.22115 22 370 1 2414
515 0.816287 -1.04039 -0.905876 156 98 44 0.582078 21 329 22 368 1 2413 2 2778
513 0.42644 -1.23247 -0.874452 73 66 62 1.01633 2 300 3 134 1 2410
512 0.467042 -1.58966 -0.974899 123 86 58 2.74653 23 184 1 2409
507 0.921843 -1.02758 -0.905173 157 103 50 0.576807 2 1935 21 328 1 2399
505 4.90459 -1.69279 -1.80534 15 16 16 0.389963 15 4896 1 2392
503 0.558681 -1.15502 -0.862784 143 103 69 1.69218 2 297 1 2385
502 0.842788 -1.03792 -0.878366 192 148 100 0.169503 20 235 21 237 1 2384
499 1.25984 -0.984829 -0.909204 100 70 47 1.40038 20 1380 1 2378
498 5.07066 -1.75409 -1.71061 13 13 14 0.495869 14 5390 15 3723 1 2373 16 2633
497 4.32112 -1.29209 -1.47346 22 23 21 0.264393 15 3721 16 2632 1 2369 17 1050
496 4.33824 -1.28347 -1.41231 19 20 19 1.0387 14 5372 15 3686 16 2597 1 2366 17 2471
495 5.27496 -1.35485 -1.58572 105 102 96 1.31666 14 4427 1 2364
494 5.45606 -1.39387 -1.62463 94 90 80 0.821079 15 2607 1 2363 16 1048 14 3183
493 5.44947 -1.34852 -1.62403 122 116 107 0.789728 15 2606 1 2362
491 5.45749 -1.43814 -1.62374 100 95 86 0.729747 15 2610 1 2359 14 3184
488 5.4313 -1.21294 -1.62472 100 94 84 0.626971 15 2601 1 2353 14 3179 16 1043
487 5.8054 -1.23428 -1.69674 113 108 101 2.43373 17 2607 1 2352
484 1.1114 -1.17272 -0.876637 24 21 18 1.09543 2 1881 17 951 23 166 1 2341 3 2217 3 2480
481 1.62109 -0.941746 -0.909338 81 62 48 1.37902 2 2743 16 2600 1 2333
480 1.82425 -0.958155 -0.92495 78 64 53 1.78044 2 2739 1 2331 16 3464
477 0.565432 -1.50725 -0.866385 107 107 106 1.84627 2 1870 21 172 22 215 1 2326
476 0.647705 -1.48189 -0.884728 185 167 158 0.774426 2 1892 3 1547 4 2280 19 161 1 2323
475 0.668256 -1.47555 -0.884781 186 168 158 1.577 2 1891 3 94 4 1585 1 2322
474 0.675528 -1.47104 -0.883972 198 180 169 1.41302 2 1890 3 93 4 1584 20 162 22 210 1 2321
473 0.816373 -1.60415 -0.899981 159 137 119 1.28837 2 1866 3 1538
472 1.10635 -1.1429 -0.840675 64 65 63 0.2503 22 1276 1 2312
471 1.19297 -1.11103 -0.869041 23 24 24 1.09106 19 1300 1 2311
470 1.17603 -1.09875 -0.85445 49 51 54 1.00927 20 948 1 2310 2 1876 16 3527 19 951
469 1.21872 -1.088 -0.855476 175 183 187 1.50636 2 252 20 945 21 1825 22 2131 1 2309
467 1.15523 -1.38031 -0.854467 202 190 176 0.77581 19 149 1 2298 2 217
466 1.14525 -1.36452 -0.851295 166 146 122 1.46663 21 1077 1 2297
465 1.15121 -1.33252 -0.841785 39 39 39 0.065594 2 2690 1 2293
463 1.16957 -1.18928 -0.833272 41 42 44 0.2183 20 143 1 2289
462 1.89964 -1.40058 -0.880944 109 95 96 0.523043 21 1820 1 2287
461 2.03545 -1.18122 -0.861171 122 107 101 0.388601 2 2683 16 2451 21 1554 22 1838 1 2280
460 2.02785 -1.11288 -0.89913 197 184 177 0.82079 2 3131 1 2274
459 2.02388 -1.08468 -0.881484 160 150 146 0.780422 2 2710 22 1362 1 2273
457 1.15651 -1.34534 -0.818058 207 197 186 1.29979 20 906 1 2267 3 2162
456 1.15262 -1.34433 -0.800428 236 236 235 0.948128 2 3086 19 1253 20 904 21 1023 22 1226 23 1158 1 2266 3 2566
455 1.15742 -1.34706 -0.794832 41 41 41 0.973577 22 1225 1 2265 3 2161
454 1.16824 -1.34862 -0.795393 45 45 44 0.316974 20 903 21 99 1 2264
453 1.24884 -1.33133 -0.800493 164 171 174 0.880496 2 2661 20 902 1 2263 19 898 21 1020
452 2.07198 -1.54792 -0.851756 215 210 202 2.12364 2 3080 21 1519 23 1156 1 2260 16 4097
451 2.07222 -1.54805 -0.851684 217 213 206 1.92885 2 3081 20 1502 21 1518 23 1155 1 2259 16 4096
450 2.07274 -1.54823 -0.84138 243 240 233 1.18995 21 1517 1 2258 22 1806
449 4.59953 -1.7775 -1.04191 75 66 61 1.15506 15 4312 16 2428 1 2226
448 4.59392 -1.77533 -1.04245 62 55 51 1.72881 14 5168 15 4311 16 2427 1 2225
447 5.14372 -1.83548 -1.06057 46 46 42 0.486259 15 3483 16 2382 1 2223 17 2351
446 1.10247 -1.35646 -0.778605 47 46 46 1.27947 19 114 20 60 1 2222
443 2.01604 -1.10635 -0.753332 193 189 183 1.1939 16 2388 1 2212 2 2633
442 2.01604 -1.10635 -0.753332 193 189 183 1.1939 16 2387 1 2211 2 2632
441 3.98834 -1.85754 -0.933971 129 144 161 1.22275 2 3070 15 4262 1 2207 14 5874
440 4.70381 -1.88414 -0.884259 218 219 222 0.580499 16 780 1 2205 14 3046 15 2459
439 4.60509 -1.76176 -0.88634 112 113 111 2.06454 15 3472 16 2381 1 2203 18 810
438 1.11138 -1.28044 -0.71634 28 28 29 0.912032 2 2621 19 886 20 877 22 1770 1 2201 21 1485
437 1.10895 -1.26371 -0.698665 38 39 41 0.936881 2 1729 19 874 1 2200 3 2139
435 1.17043 -1.2564 -0.712907 27 28 31 0.0404123 19 880 1 2193
433 1.19614 -1.2522 -0.711029 25 25 27 0.244489 22 1190 1 2190
432 1.56863 -1.65173 -0.771781 34 34 36 0.124176 19 882 1 2184
430 2.01968 -1.10711 -0.715506 201 195 183 0.774264 16 2349 1 2176 21 1767 22 1765
429 2.02025 -1.10778 -0.71553 201 194 182 1.0815 16 2348 21 1768 1 2175 2 2631
428 2.03375 -1.09311 -0.697894 95 95 89 1.66831 16 786 21 1760 1 2171 2 2608
427 5.11126 -2.21118 -0.721198 110 110 112 0.399727 14 5820 15 3414 1 2169
426 1.88 -2.85287 -0.75063 204 202 195 1.70108 3 2561 19 1419 23 1336 1 2166 2 3049
425 1.0895 -1.25073 -0.680891 53 53 53 0.714957 2 2617 19 1242 20 874 1 2165
424 1.37672 -1.20292 -0.643337 102 107 111 0.967031 2 2602 20 861 22 1157 23 38 1 2163 16 3339 21 973
423 2.02059 -1.29055 -0.658003 230 230 232 0.549067 2 2613 16 2298 21 1473 1 2162
422 2.02472 -1.27955 -0.630037 202 195 190 1.22527 2 1705 16 2293 21 1752 1 2161
421 2.03115 -1.23475 -0.628966 216 214 208 0.641421 16 2291 21 967 1 2159 2 2596 22 1151
420 2.30337 -1.31546 -0.645606 219 220 221 0.505975 2 3046 1 2157 16 3337
418 2.16615 -1.09635 -0.651229 207 210 214 0.500355 15 4214 1 2154 2 2604
417 0.757083 -2.02593 -0.624551 101 102 99 1.39503 20 22 1 2136
416 1.07002 -1.69738 -0.626484 111 112 111 1.14822 20 867 1 2134
414 1.67637 -2.67813 -0.618421 113 115 115 0.173386 3 2125 1 2132
413 1.88026 -2.88194 -0.642696 135 133 126 0.367316 19 1239 1 2131 2 2587 20 865
411 2.07684 -1.55227 -0.62057 212 207 198 1.06305 16 3271 20 1276 23 1142 1 2129 2 2600 17 693
410 2.01127 -1.11896 -0.616061 230 230 230 2.50802 16 3331 22 2283 1 2123 21 1748
409 2.01764 -1.12215 -0.616206 206 206 205 1.34811 16 3332 17 674 21 1465 1 2122 2 3044
198 4.77163 -1.75822 -0.656281 51 55 53 1.32643 15 761 1 1331 14 4220
195 1.73622 -2.67562 -0.619534 114 115 112 0.437147 21 948 22 1116 1 1324
194 1.86124 -2.71657 -0.641389 133 130 125 0.551367 3 2122 19 869 20 864 1 1323 2 1682 23 807
193 1.85026 -2.65003 -0.64397 232 222 213 0.598717 3 1478 19 866 20 39 1 1322
192 2.07888 -1.55405 -0.577602 218 214 207 1.43751 16 3265 20 1275 21 944 23 789 1 1318 2 1680
191 2.0177 -1.12081 -0.571881 231 231 231 1.00849 16 509 22 20 1 1316 2 1668
190 2.02122 -1.12241 -0.571928 224 224 223 0.871649 16 508 1 1315 2 1667
189 2.17724 -1.10035 -0.599232 197 197 196 0.858681 16 2183 1 1313 17 504
188 2.1643 -1.08904 -0.602891 155 152 143 2.40386 22 1718 1 1312 2 1695
187 2.07647 -1.55269 -0.541034 189 181 164 1.29778 17 512 20 842 21 936 1 1303 2 1675 16 2074
186 2.07696 -1.55259 -0.541307 209 201 182 0.873265 17 513 21 937 22 1101 1 1302 2 1676
185 2.03274 -1.45843 -0.563527 184 112 124 1.29371 2 1669 16 2190 17 2176 21 1449 1 1301 18 567 22 1719
183 2.01758 -1.12054 -0.545089 233 234 232 1.13641 16 312 1 1296 2 1666 21 20
181 1.59028 -0.976537 -1.72634 93 60 38 0.688177 21 634 1 1258 2 1513 20 1131 22 1568
179 0.661784 -1.09466 -1.29132 103 63 34 0.585369 2 1042 3 1084 1 1209 19 462
178 0.688214 -1.0918 -1.29657 82 48 27 0.25888 3 1079 1 1203
177 1.64546 -0.966169 -1.7226 96 61 36 1.04877 21 628 1 1184 22 821
175 1.67151 -0.967315 -1.71487 80 63 50 1.32639 22 1561 1 1180 21 1288
174 1.67737 -0.963137 -1.7243 91 58 34 0.623018 21 626 1 1179 22 1562
173 1.82076 -0.970402 -1.78777 69 46 34 0.523732 21 1354 1 1177
172 0.986631 -1.05379 -1.39741 114 70 35 0.740042 19 497 1 1123 3 1279
171 1.05156 -1.04574 -1.41955 87 51 27 0.413415 2 1134 1 1121
169 1.70519 -0.961905 -1.68274 95 67 50 0.486362 21 1279 1 1116 2 1374
167 1.86881 -0.942493 -1.72284 131 123 122 0.488253 21 607 1 1106
165 1.10834 -0.615863 -1.13185 105 70 44 1.18548 20 1405 1 1055
162 2.03665 -0.915304 -1.73463 63 56 50 0.610589 15 3087 1 1051 2 2441
161 0.902375 -1.06505 -1.28967 113 66 33 0.0706746 3 1074 1 1009
160 1.06704 -1.04432 -1.34398 90 54 29 0.603774 2 1033 1 1005 3 1159
159 1.07116 -1.04567 -1.3186 118 71 33 0.236864 2 935 1 1003
158 1.06562 -1.04494 -1.30543 77 46 27 0.479484 19 476 1 961 3 2023
157 1.49125 -0.990816 -1.40808 133 87 45 0.431388 2 934 20 492 21 513 22 695 1 955
156 1.95673 -0.935485 -1.60986 72 50 32 1.39648 15 3960 21 563 1 954
155 1.96084 -0.929024 -1.60872 80 56 43 1.46801 15 3067 21 1660 1 953 2 1130
154 0.982658 -1.05505 -1.23065 104 76 45 0.865414 3 999 16 1696 1 916
153 0.982658 -1.05505 -1.23065 104 76 45 0.865414 3 998 16 1695 1 915
152 1.00261 -1.05277 -1.21665 70 42 21 1.18318 3 923 16 1660 1 914
151 1.00191 -1.05252 -1.20771 84 49 24 1.21822 3 922 16 1661 22 613 1 913
149 1.48293 -0.993604 -1.36002 117 74 38 0.398624 20 472 21 506 22 670 1 910
148 0.471021 -1.12063 -1.03589 151 101 45 2.5153 21 401 1 903 3 2328
147 1.02092 -1.05166 -1.19293 127 82 43 0.334667 2 748 3 1969 1 882
146 1.042 -1.04827 -1.20032 109 67 34 0.941894 22 610 1 881 3 1968
145 2.03143 -0.921905 -1.50014 36 27 18 0.589731 16 1452 1 878
144 2.06897 -0.913971 -1.5164 90 97 107 0.457313 15 1737 1 876
143 1.04359 -1.04898 -1.16861 107 64 30 0.253994 3 830 1 846
142 1.06954 -1.0526 -1.17445 159 120 71 0.031755 2 2182 1 845
141 1.06954 -1.0526 -1.17445 159 120 71 0.031755 2 2183 1 844
140 1.4921 -0.992634 -1.26626 125 81 48 0.569583 2 745 20 1082 21 494 1 840
139 1.85739 -0.944193 -1.38457 88 65 49 0.834222 15 4541 1 838 2 851
138 0.664382 -1.08864 -1.03205 145 95 44 1.47323 20 403 1 809
136 2.02694 -0.921175 -1.36813 64 45 28 0.719678 16 1405 1 794 2 2216
134 2.02064 -0.923906 -1.33731 89 66 44 1.30696 15 4522 1 788 2 2180
133 0.771487 -1.08345 -1.0358 149 101 46 0.503369 2 547 3 576 1 746
132 0.79416 -1.07999 -1.03543 161 114 51 0.777288 2 545 3 575 22 564 1 743
131 0.808707 -1.07925 -1.03581 143 94 43 0.48983 2 544 1 740
130 0.834648 -1.07548 -1.03517 144 95 46 0.45821 2 493 3 573 1 738
129 0.861369 -1.07286 -1.03611 154 104 49 0.540634 2 491 1 733
128 0.878502 -1.07053 -1.03923 63 36 21 0.78599 2 490 3 571 19 385 1 728
127 0.905732 -1.06386 -1.03427 140 94 47 0.088393 22 560 1 724
126 1.43831 -1.00027 -1.15893 133 89 50 0.557402 2 613 21 474 1 715
125 1.48155 -0.995192 -1.19527 126 86 50 0.435091 2 612 20 1071 21 1222 22 1917 1 714
124 1.54537 -1.02982 -1.19517 113 72 44 0.31318 2 611 1 712
123 1.85327 -0.947734 -1.24364 195 200 214 1.94246 21 1228 1 711 2 2146 21 1892
122 1.85225 -0.947319 -1.24332 193 197 210 2.19993 1 710 2 2145 21 1891
120 0.932965 -1.06351 -1.03538 144 97 51 0.490229 2 487 1 683
119 0.719765 -0.683353 -0.83084 167 109 50 3.24754 20 321 21 1615
118 0.945252 -1.06107 -1.03515 148 103 53 0.359797 2 486 1 681
117 1.00938 -1.05496 -1.03572 130 91 51 0.224004 3 566 1 676
116 1.03819 -1.04953 -1.0345 135 97 55 1.03423 16 1412 19 426 1 673 2 484 21 381
115 1.04663 -1.04887 -1.03482 149 105 54 0.105116 22 555 1 672
114 1.06442 -1.04645 -1.03461 150 110 63 0.468307 19 425 20 392 1 670
113 1.11035 -1.04068 -1.03416 147 108 59 0.761567 16 1409 19 421 20 390 22 553 1 663 2 481 21 378
112 1.12124 -1.04004 -1.03447 124 86 44 0.875647 16 1369 19 420 22 552 1 662
111 1.17551 -1.03251 -1.03409 146 97 50 0.444439 22 550 1 617
110 1.19089 -1.03155 -1.03452 150 105 56 0.0132151 22 549 1 616
109 1.23283 -1.02648 -1.0341 139 100 56 0.972482 16 1365 20 387 21 462 22 545 1 612
107 1.29525 -1.01777 -1.03372 173 125 65 0.561456 22 543 20 386 21 460
106 1.31776 -1.01556 -1.03389 135 97 48 0.757531 16 1293 22 542 1 609 20 384
105 1.51419 -1.01875 -1.07364 130 90 50 1.51562 21 1638 1 607
104 2.03897 -0.922499 -1.16672 70 50 31 1.11931 15 3834 1 606
103 0.553341 -0.657786 -0.759274 125 78 43 0.446071 2 3506 1 584
102 0.845964 -1.04604 -0.912771 103 63 36 1.92088 20 322 1 549 2 339
101 1.35183 -1.0116 -1.03422 155 113 63 0.578871 20 383 21 459 22 540 1 547
100 1.36003 -1.01044 -1.03408 167 125 67 0.365716 20 382 21 458 22 1463 1 546
99 1.39605 -1.00625 -1.03436 172 128 72 0.486551 20 381 21 457 1 545 2 426 22 539
98 1.6272 -0.978169 -1.03774 114 86 59 0.294361 2 425 1 544
97 2.03185 -0.924554 -1.13821 55 36 23 0.680768 15 1326 1 543 2 480
46 2.1677 -1.35324 -0.78252 253 254 253 0.333869 2 1755 1 178 21 1014
45 4.12294 -1.95751 -0.933102 91 120 152 1.34711 2 123 14 4300 1 168
44 5.07919 -2.23287 -0.885487 33 34 32 0.305582 14 4289 15 2447 1 163
43 5.15173 -2.02361 -0.912898 130 132 134 0.246101 14 1027 1 160
42 5.076 -1.77062 -0.898772 110 86 64 0.169821 15 855 1 156
41 1.13696 -1.2464 -0.690255 38 38 39 0.549623 2 72 1 148
40 1.25636 -1.2413 -0.729916 17 17 17 1.05267 16 871 1 144
39 2.0208 -1.40847 -0.693672 193 187 182 2.48645 2 62 1 138 16 812
38 3.43717 -1.90031 -0.805131 74 80 85 0.74244 2 1752 1 128 16 801
37 2.02544 -1.09711 -0.714754 216 219 218 1.61724 21 1008 1 124 2 82
36 1.6842 -0.822814 -0.674703 186 179 163 0.119602 21 60 1 114
35 4.76892 -2.12874 -0.717714 125 125 126 1.03269 15 767 1 111 14 4223
34 5.06821 -2.16708 -0.724 194 197 201 0.728722 15 766 1 110 2 47
33 4.68836 -1.89261 -0.795378 80 49 47 0.855675 15 2445 1 109 14 4274
32 1.8731 -2.80628 -0.752098 203 202 194 0.755567 23 816 1 100 3 1485 19 89
31 1.08878 -1.23914 -0.66432 50 53 55 0.809324 19 85 1 98 23 39
30 1.99761 -1.43193 -0.684444 205 199 197 1.62123 2 2615 16 3985 20 47 1 96
29 2.0339 -1.26498 -0.628959 219 217 211 0.627419 2 1704 16 722 21 47 1 93
28 2.31697 -1.30091 -0.644293 254 255 255 1.38685 2 33 1 90
27 2.16808 -1.08538 -0.653568 184 177 162 0.681785 22 1147 1 89 2 1711
26 4.79481 -2.1278 -0.707866 67 69 67 0.358897 14 4222 15 2387 16 714 1 88
25 2.47117 -0.759553 -0.598537 252 251 238 2.86737 16 677 1 76
23 1.56681 -2.69388 -0.620961 114 115 114 0.219112 19 77 1 72 3 18
10 2.04008 -1.44495 -0.532396 192 145 151 0.77206 2 6 1 39 16 2072
9 2.03924 -1.44148 -0.517394 167 125 129 0.544358 2 1661 17 312 1 38 16 2071
8 2.00305 -1.25941 -0.527709 150 129 114 0.0725045 17 507 1 36
5 2.03458 -1.36725 -0.489545 214 172 197 0.680746 2 5 21 8 1 14 16 314
4 2.08187 -2.49356 -0.282999 238 240 240 0.573686 3 0 20 8 1 9
2 1.37358 -1.81029 -0.252359 233 232 225 1.24752 23 1872 1 6
1 5.79485 -1.92864 0.954074 78 80 80 0.0586472 16 40 17 38
11 2.07446 -1.55887 -0.544936 154 149 137 0.734908 20 843 21 24 1 42
12 2.07683 -1.55196 -0.550015 240 238 230 1.52598 20 844 21 938 23 10 1 43 2 1677 22 1102
13 2.07655 -1.55179 -0.549747 240 237 228 1.30322 20 845 21 939 23 11 1 44 2 1678
