# 3D point list with one line of data per point:
#   POINT3D_ID, X, Y, Z, R, G, B, ERROR, TRACK[] as (IMAGE_ID, POINT2D_IDX)
# Number of points: 684, mean track length: 3.02052
630 -10.6317 3.11997 4.88005 134 122 96 0.592237 2 3243 6 3277 1 3545
631 -8.50974 -2.48455 4.05966 209 186 142 2.84737 4 2873 1 3549 3 2879
632 -8.50974 -2.48455 4.05966 209 186 142 2.84737 4 2872 1 3550 3 2878
633 -8.49483 -2.38776 4.05437 195 174 133 2.48821 4 2875 1 3552 2 3004 3 2881
634 -11.9297 2.87756 2.57377 230 237 242 1.42775 2 3263 3 3236 1 3586
635 -12.1257 2.7011 2.32809 138 65 32 0.0755087 2 3268 1 3589
637 -10.0277 1.93785 2.28961 175 162 135 0.054693 2 3272 3 3185
638 -11.6751 -1.8963 2.30764 145 117 73 2.52809 3 2961 1 3594 2 3190
643 -12.5645 2.95593 2.50272 248 253 254 1.42783 2 3305 3 3235 5 3458 1 3654
644 -11.9128 2.8629 2.56312 247 252 253 2.31457 5 3386 1 3655
645 -6.9602 0.556315 2.6774 88 35 25 0.90711 2 3275 1 3670
646 -10.5822 -3.71795 2.32519 166 142 108 1.76957 4 3111 2 3276 6 3036
650 -11.1405 3.08064 3.24317 251 254 254 1.89461 2 3355 3 3296 1 3702
651 -11.2026 3.14329 2.54942 225 228 226 2.19654 2 3362 3 3262 1 3710
652 -6.84849 0.619504 3.05769 219 223 222 3.00892 2 3364 1 3712 6 3406
653 -12.1968 2.80563 3.23347 248 251 254 0.562725 1 3743 3 3333
654 -11.131 2.94166 4.20684 255 255 255 1.52865 2 3414 6 3589 1 3761
655 -10.2935 3.34476 3.651 248 250 249 2.44249 2 3417 1 3766
656 -10.5947 2.96226 4.67418 173 157 131 2.54853 2 3461 1 3812
657 -5.80399 -1.41638 4.17649 13 14 13 3.37272 4 123 2 10
659 -7.12189 -1.68074 4.53509 38 40 39 1.19254 3 68 2 29
660 -7.12189 -1.68074 4.53509 38 40 39 1.19254 3 67 2 30
661 -4.74298 -2.08926 3.66235 9 9 8 2.79372 3 289 2 76
666 -7.47051 -1.39184 4.35043 11 11 11 0.504926 4 204 2 149
667 -6.12813 -1.70066 4.03012 169 160 143 1.72562 4 2304 2 153
668 -8.39353 -1.76187 4.39048 11 11 8 0.160504 3 286 2 188
672 -8.95294 -1.75522 4.25225 12 12 9 2.11293 3 342 2 240
673 -8.58535 -1.69043 4.2007 28 27 23 0.575143 3 345 4 308 2 244
674 -8.73908 -1.37835 4.1064 17 19 19 0.0674344 4 361 2 302
675 -8.42215 -5.67803 3.21296 132 103 56 0.373298 5 2449 6 2425 4 2740
677 -12.9658 2.485 4.23693 247 253 253 0.525317 3 1325 5 468 2 344 4 1379
678 -12.8933 2.49897 4.23555 246 253 254 0.271094 5 469 2 346 3 462 4 379
679 -12.9341 2.47109 4.16384 205 223 230 0.0316557 3 466 2 347
680 -12.1366 2.72421 4.23459 249 253 254 0.586408 3 1330 5 393 2 352
681 -5.43116 -0.966704 3.59334 206 210 213 1.86362 4 2002 2 370
682 -7.28137 -1.6054 3.70824 19 19 19 1.84572 3 509 6 1364
683 -13.1567 2.7921 4.02877 215 220 219 0.48917 3 1350 2 410 5 1395
684 -5.37454 -0.628283 3.55266 246 239 192 0.400769 5 3096 2 440
685 -8.74449 -3.2211 3.64082 32 33 30 0.920493 3 534 4 520 2 455
686 -13.0315 2.67574 3.63001 253 255 254 1.32432 3 1869 2 481
687 -12.8944 2.70693 3.57261 151 192 237 1.38788 5 584 2 482 4 545
688 -12.875 2.70267 3.57009 154 196 238 1.44255 3 1384 5 585 2 483
689 -12.4122 2.99781 3.73572 229 229 220 0.542136 3 520 5 530 2 486
690 -12.3559 2.95283 3.46386 254 255 254 0.328272 3 1391 5 1460 2 490
691 -10.8923 2.99126 3.13863 252 254 254 3.24553 1 1546 6 2751
694 -9.59927 -1.26079 3.37515 20 22 22 1.93754 3 605 2 572 4 603
695 -12.9992 2.74356 3.46225 188 210 239 0.393485 5 583 2 578 4 1486
696 -12.2795 2.82634 3.43735 117 119 118 0.404189 3 566 2 582 5 595
697 -11.6 2.82566 3.30343 184 183 169 0.879033 3 1922 6 506 2 585
698 -11.4958 3.06224 3.43688 129 133 128 0.712742 3 1397 2 586 6 507
699 -10.2432 -1.41104 3.29843 3 3 2 0.315055 3 603 4 599 2 610
700 -13.1978 2.76802 2.75388 246 250 253 0.267452 3 692 4 671 5 713 2 612
701 -12.3957 2.66354 3.0948 211 214 217 1.03409 3 1455 5 1523 2 613 4 1544
702 -9.90424 -3.243 3.0939 16 16 16 1.2633 5 685 2 625
703 -10.8477 -1.61866 2.85987 202 179 116 0.683956 3 674 5 761 6 622
704 -10.8477 -1.61866 2.85987 202 179 116 0.683956 3 675 5 762 6 623
705 -11.6578 -0.0239125 2.79435 136 87 37 2.41092 3 684 6 627
706 -17.034 1.28239 2.37672 134 69 26 0.130699 3 682 4 710 2 635
707 -13.0887 2.76248 2.73952 253 254 254 0.897137 3 693 4 1598 5 714 2 641
708 -13.0727 2.63673 2.45276 254 254 254 0.277777 3 757 4 1619 5 779 2 642
709 -12.3406 2.63202 2.75056 152 148 142 0.3539 3 706 2 645 4 727
710 -12.5275 2.64052 2.51122 254 254 253 0.411248 3 1490 4 1628 2 651 5 783
711 -10.0993 -3.31007 2.87182 247 224 185 2.1377 3 660 4 695 6 612 2 686 5 739
712 -11.4026 -1.74261 2.81354 209 182 109 2.00488 3 672 4 705 5 752 6 621
713 -11.4026 -1.74261 2.81354 209 182 109 2.00488 3 671 4 704 5 751 6 620
714 -13.8808 -0.713576 2.27389 87 88 79 0.268562 4 786 5 765 2 699
715 -9.66392 0.544543 2.79122 157 103 45 2.16444 6 1524 2 701 4 716
717 -10.6458 -3.42619 2.67375 236 214 175 1.22862 5 745 6 615 2 753
718 -10.9884 -2.69149 2.47916 8 8 8 0.377102 3 778 2 757
720 -11.2397 -1.85257 2.49944 10 12 12 0.518852 5 833 2 761 4 780 6 723
721 -11.1608 -1.69783 2.54563 9 9 9 0.994731 4 1646 5 1580 2 762
722 -9.47788 -0.0273017 2.55466 193 190 171 0.293049 3 784 2 771
723 -9.69136 -4.84767 2.2378 68 58 39 0.533061 3 826 5 858
724 -4.51171 -1.76788 3.14935 20 11 4 1.22113 3 1606 2 953
725 -13.7277 -4.54235 6.05556 130 121 100 0.368786 1 2390 3 1147 4 1922
726 -13.4718 -1.0624 6.91304 3 4 5 2.61973 5 110 2 1031
727 -12.8317 -0.745099 6.63471 6 7 6 0.309482 3 2102 2 1033
728 -7.65489 -1.16172 4.80597 19 20 19 0.851983 3 2847 2 1036
729 -8.79142 -1.42451 5.5045 26 26 25 0.431355 5 37 6 3259
730 -7.45881 -2.03959 4.59593 2 2 2 2.10623 3 112 2 1049
731 -7.93609 -0.833386 4.46795 13 13 13 1.55523 3 1171 5 264 2 1112
732 -10.2215 -3.45731 4.81942 27 26 21 1.29175 5 2299 2 1113
734 -8.03592 -2.49676 4.35735 9 9 7 1.73693 3 252 4 230 2 1124
735 -8.11757 -2.06725 4.34806 8 8 5 1.72095 3 271 2 1141
736 -8.25015 -1.97093 4.35938 14 14 14 0.931081 3 275 4 242 5 324 2 1145
738 -8.22649 -1.93472 4.36409 9 9 7 1.49147 3 279 4 239 2 1150
739 -7.70747 -1.42731 4.46217 21 21 21 0.687924 5 1878 6 1865
740 -8.31994 -1.58268 4.37526 24 24 20 0.780717 3 291 4 250 2 1163
741 -8.35344 -1.55034 4.36613 9 9 8 1.87851 3 296 5 325 2 1185
742 -8.51885 -1.13201 4.29665 8 8 8 0.4082 4 267 2 1195
744 -8.59417 -2.40272 4.01609 25 26 23 0.730528 3 397 4 345 2 1229
745 -8.60189 -2.41728 4.01168 10 10 8 0.388771 3 1269 5 435
746 -9.04246 -1.61526 3.9826 24 27 26 0.793779 3 1820 6 383 5 1388
748 -6.98036 -2.40356 3.66735 15 16 13 0.033808 3 1835 2 1298
750 -12.4456 2.69127 3.93751 156 174 198 2.26929 5 2388 2 1320 3 1354
751 -8.77148 -3.15507 3.6825 127 131 131 0.607158 3 537 4 471 2 1349
753 -9.97434 -1.20104 3.64842 15 17 17 3.0502 1 2127 4 1438 3 1377
754 -13.1122 2.7876 3.74973 245 248 247 0.3774 3 1353 5 1418 2 1362 4 2021
755 -12.7132 2.84396 3.66279 249 252 253 1.50075 6 1408 2 1366 5 2389
756 -13.0259 2.62678 3.42787 253 255 252 0.385385 4 544 5 582 3 608
757 -9.69919 -2.41144 3.39592 8 9 7 0.250975 4 1522 5 632 2 1414
761 -13.0671 2.70316 3.46964 252 254 253 0.670555 3 1383 5 2036 6 499 2 1430 4 2043
762 -10.1446 -1.99658 3.27985 21 23 22 0.786321 3 596 4 595 5 634
763 -11.69 -1.76255 3.16704 24 24 23 2.42546 3 1443 5 1503 2 1444
764 -26.616 -0.949342 2.49392 25 25 24 0.279281 1 2891 3 623
765 -10.0209 -1.33133 3.2252 22 22 19 0.0744818 3 1952 5 642
767 -10.4941 -2.85951 3.08131 17 17 16 2.16024 2 1462 5 688 3 622
768 -10.4798 -1.92684 3.07866 20 20 20 1.43616 3 625 2 1465
769 -10.78 -1.91827 3.01173 209 189 137 0.881027 1 1562 6 544
770 -10.492 -1.9059 3.0293 135 117 77 0.134202 3 666 5 692
772 -12.6501 2.81005 2.4586 100 104 103 0.30883 5 1599 3 1507
774 -11.7096 2.80408 2.5251 253 255 253 2.30525 5 2481 2 1491
775 -10.2542 -3.2252 2.86165 242 222 185 1.92156 5 742 6 613 2 1511
776 -10.3159 -3.14059 2.92479 19 19 18 0.683993 3 664 5 686 2 1512 4 697
779 -11.1269 -1.81467 2.56292 10 10 10 0.458553 3 752 5 758 2 1572
780 -11.0635 -1.75386 2.54631 12 12 12 0.257296 3 1500 4 1645 2 1573
781 -10.5344 3.14696 2.27811 123 68 27 0.360229 3 1999 2 1576
782 -10.7328 -3.42862 2.54191 13 13 13 0.835316 3 775 5 819 2 1606
784 -7.31524 -0.379228 2.67366 173 181 182 1.37638 3 2009 2 1630 4 1689 5 2142
785 -6.68053 -2.52079 2.70193 74 45 16 0.258303 3 1567 4 850 2 1645
787 -5.12435 -1.82216 2.98767 16 8 4 0.880981 3 894 2 1666
788 -8.18577 0.308729 1.43713 44 26 10 0.666529 6 980 2 1667
789 -6.57204 -2.41535 4.37895 1 1 1 1.28829 3 62 2 1693
790 -6.57204 -2.41535 4.37895 1 1 1 1.28829 3 63 2 1694
791 -13.5744 -4.8957 5.88182 136 118 81 0.839474 5 1261 6 207 2 1724 4 182
792 -13.5744 -4.8957 5.88182 136 118 81 0.839474 6 208 2 1725 4 183 5 1262
793 -13.6593 -4.8946 5.93599 219 189 153 0.965471 6 1249 2 1726 3 1184 4 184
794 -13.6593 -4.8946 5.93599 219 189 153 0.965471 6 1250 2 1727 3 1185 4 185
796 -7.59073 -1.64808 4.39726 16 17 17 2.82062 3 180 4 200 2 1735
797 -7.73239 -1.45044 4.42048 19 20 20 0.626911 3 1163 4 202 2 1736
798 -8.15107 -2.17009 4.37443 18 18 16 1.4047 3 1217 4 232 5 321 2 1744
799 -8.50658 -0.927961 4.36881 3 3 3 0.504267 3 1239 4 1335 5 339 2 1755
800 -8.2921 -2.511 4.18034 11 11 8 1.56171 3 1249 4 1344 2 1756
801 -8.47367 -2.27154 4.14564 21 21 21 2.7684 5 370 2 1760 4 1366
802 -8.59651 -2.16473 4.17686 6 7 7 0.780804 3 1782 4 1346 5 371 2 1761
804 -14.3765 -0.119953 5.42727 176 159 127 2.19683 1 2428 5 299
805 -8.84492 -1.37776 4.18398 5 5 5 0.696052 3 1786 4 1353 2 1768
806 -20.1543 -0.804667 5.64782 115 102 84 3.23256 6 2322 2 1778
807 -8.78185 -1.37438 4.1526 18 19 18 1.39571 3 1799 4 1376 5 1360 6 342 2 1782
808 -9.66385 -1.09732 3.91943 199 193 152 0.986187 3 1320 4 1401
809 -8.96559 -2.26594 3.79116 31 31 31 1.41472 3 1836 6 379
810 -9.38777 -1.29203 3.82513 3 3 3 2.39383 4 485 2 1812 3 1346
811 -9.26274 -2.20608 3.63108 9 12 12 0.351814 3 1372 5 1438
812 -13.2387 2.78626 3.76326 244 250 251 0.328175 3 2203 5 2387 2 1840
814 -13.0654 2.72124 3.51749 152 196 238 0.725948 5 2035 6 1407 2 1843 4 2421
816 -9.69969 -2.37418 3.4503 20 20 20 0.353794 3 1416 2 1863 5 564
817 -9.71887 -2.41673 3.37179 119 99 66 0.904976 4 1523 2 1864 3 1898 5 1484 6 1428
821 -11.27 -1.4933 3.36112 177 162 137 0.366079 3 1910 4 1538 5 1510
1741 2.5291 0.00630901 3.66179 41 37 31 0.0587853 8 1661 10 1673 7 680
1742 2.51845 -0.125475 3.48879 150 132 107 0.182337 8 1663 10 1737 7 681
1 -8.07481 -2.48394 4.35294 11 11 11 0.0916072 2 169 1 108
1743 2.88386 -1.21934 3.63258 169 153 127 0.281574 8 1667 10 2230 7 685
2 -7.69692 -1.55088 4.43054 15 15 14 0.18986 2 145 3 181 1 112
1744 2.82341 -1.27115 3.61298 174 156 133 2.04472 8 677 10 714 7 687
3 -5.0243 -1.97515 3.74795 7 7 7 2.74847 2 1091 3 3020
1745 2.85439 -1.20459 3.54844 132 125 119 0.277876 8 675 10 1674 7 688
4 -8.07688 -2.46042 4.35208 12 12 11 0.340821 2 170 1 138
1746 2.905 -1.40571 3.61562 68 61 56 0.146195 8 1670 9 2263 10 2231 7 691
1747 2.905 -1.40571 3.61562 68 61 56 0.146195 8 1671 9 2262 10 2232 7 692
6 -10.1517 -0.605717 4.87072 182 170 154 0.265728 2 194 1 164
1748 2.8639 -1.53677 3.55717 53 44 33 1.33257 8 1673 10 721 7 693
7 -8.50724 -1.07995 4.42524 183 174 158 0.913592 3 305 1 175
1749 2.8639 -1.53677 3.55717 53 44 33 1.33257 8 1674 10 722 7 694
8 -8.1019 -0.736944 4.37247 5 6 5 0.227562 2 199 3 242 4 215 1 179
1750 2.97524 -1.63825 3.50842 163 146 124 0.454043 8 1675 10 2234 7 695
9 -8.69706 -1.987 4.27368 204 180 149 1.6874 2 1762 1 197
1751 2.95033 -1.64526 3.47185 150 132 112 0.479744 8 680 9 817 7 696
1752 3.00999 -1.66057 3.40775 38 32 25 0.124023 8 1724 9 2266 10 2303 7 697
1753 3.00999 -1.66057 3.40775 38 32 25 0.124023 8 1725 9 2265 10 2304 7 698
12 -9.09152 -0.974335 4.29933 192 161 112 3.46374 2 1215 1 219
1754 3.06265 -1.93217 3.5886 38 35 30 0.674509 8 1677 9 1740 10 1678 7 701
1755 3.16639 -2.30253 3.51835 150 135 107 0.198922 8 685 9 1746 10 2246 7 702
1756 2.3675 0.439931 3.32883 42 41 38 0.180141 10 1783 7 804
15 -8.8154 -2.01785 4.03151 32 32 27 0.530869 2 293 1 275 3 401
1757 2.40511 -1.23883 3.12238 37 24 16 0.231447 8 1746 10 1785 7 806
16 -10.2405 -0.905904 4.24342 193 167 120 1.00857 3 410 1 286
1758 -5.28494 -2.58474 3.4212 95 86 71 2.39624 8 1749 9 920
17 -9.48494 -0.990485 4.11657 182 164 119 1.56732 2 1240 3 1278 4 1974
1759 2.90145 -1.46986 3.26877 156 131 105 0.303788 8 758 9 1787 7 808 10 1786
18 -6.63069 -2.00503 3.72438 107 95 72 2.25933 2 1268 1 294
1760 -2.02858 -2.67796 2.31865 86 59 22 0.139399 9 1115 7 984 8 965
1761 -1.91418 -3.07269 2.31853 64 45 17 0.313177 9 1078 7 989 8 969
20 -9.04364 -1.09922 3.99419 3 3 3 0.122598 2 339 4 366 1 296
1762 -2.66479 -4.1944 2.38714 64 63 53 0.207786 9 1069 7 1015
21 -9.62991 0.525421 4.15049 168 151 115 2.55662 2 314 1 301 3 419
1765 -1.35354 -4.04237 5.07609 163 150 119 0.535975 8 134 9 1402 7 1199
24 -9.76372 -1.12088 3.88267 7 7 5 1.13534 2 406 1 346
1766 -1.37914 -4.05223 5.00927 106 98 71 0.421701 8 1327 9 2045 7 1205
25 -12.0726 2.72476 4.25531 243 251 253 0.355513 2 348 5 1365 1 357
1767 -1.37914 -4.05223 5.00927 106 98 71 0.421701 8 1328 9 2046 7 1206
26 -12.0726 2.72476 4.25531 243 251 253 0.355513 2 349 5 1364 1 358
1768 -1.38602 -4.05097 4.9445 93 84 60 0.363314 8 177 9 1453 7 1207
27 -12.1318 2.70263 4.2311 249 254 253 0.668783 3 1328 5 1363 1 359 2 350
1769 -1.38602 -4.05097 4.9445 93 84 60 0.363314 8 178 9 1454 7 1208
28 -12.1361 2.72397 4.23437 250 254 253 0.493506 2 351 3 1329 5 392 1 361
1771 1.58253 -3.26254 5.53752 127 110 77 0.0137511 9 1449 7 1218
30 -11.4912 2.87263 4.2076 232 239 240 0.201889 2 356 3 425 1 363
1772 2.66699 -2.9102 5.0645 117 101 67 0.437957 8 1432 9 2115 7 1225 10 2425
31 -11.4964 2.90101 4.23636 252 254 254 0.195614 2 354 3 426 1 366
1773 2.66699 -2.9102 5.0645 117 101 67 0.437957 8 1433 9 2116 7 1226 10 2426
32 -11.4964 2.90101 4.23636 252 254 254 0.195614 2 353 3 427 1 367
1774 2.33148 -2.99964 5.0603 117 103 69 0.215236 8 1416 9 2119 7 1227 10 2716
33 -11.4027 2.89544 4.23063 251 254 254 0.347836 2 360 3 428 1 371
1775 3.07165 -2.37781 4.9334 49 46 37 0.94316 8 286 9 1528 7 1239 10 1904
34 -11.1676 2.98724 4.2557 246 253 254 0.195294 2 361 3 1288 1 374
1776 3.19691 -2.75711 5.06412 112 98 65 0.384289 8 1430 9 2114 7 1240 10 2428
35 -11.1676 2.98724 4.2557 246 253 254 0.195294 2 362 3 1289 1 375
1777 3.19936 -2.75422 4.95225 83 72 47 1.30241 8 1436 9 2620 7 1243 10 2958
36 -8.99773 -3.17791 3.70745 12 13 11 1.04829 2 1351 1 410 4 2015 5 1976 6 1391 3 2217
1778 2.87478 -1.30816 4.59156 121 104 67 0.301087 8 2048 10 2447 7 1270
37 -9.00741 -1.87497 3.79302 22 22 22 1.807 2 1304 3 1343 1 427
1779 2.86953 -1.30856 4.53783 74 58 33 0.249219 8 1448 10 1962 7 1271
38 -11.5246 3.22038 3.76739 149 222 255 2.16711 2 413 3 1849 1 450 2 1819
1780 2.90872 -1.34201 4.56791 163 147 117 0.538403 8 2050 10 1963 7 1272
39 -10.5036 -1.29781 3.5724 44 51 52 0.945465 2 474 3 545 1 523
1781 2.88648 -1.34572 4.52773 170 154 122 0.345361 8 2081 10 1965 7 1274
40 -10.5292 -1.29092 3.55096 43 49 52 0.324634 2 476 4 533 1 524
1782 2.91171 -1.58605 4.63134 166 154 140 0.729742 8 1456 9 2125 7 1275 10 1932
41 -9.44879 -1.26501 3.59568 3 3 3 0.0723265 2 477 3 546
1784 2.98149 -1.60881 4.66391 18 18 14 0.514156 8 1454 9 2127 7 1277 10 1231
1785 3.00932 -2.17542 4.65481 25 22 17 2.39183 10 1234 7 1278 9 494
44 -25.1308 12.4286 4.12583 202 206 207 0.178496 3 1848 1 538
1786 3.08279 -2.16988 4.64112 110 42 30 1.72709 8 1460 10 1940 7 1279 9 1567
1787 2.11007 1.38979 4.27811 194 172 121 0.31198 10 2008 7 1307
46 -12.2293 2.98621 3.46446 254 255 254 0.305196 2 491 5 1461 1 542 3 1392
1788 2.24523 0.870368 4.30971 174 151 113 0.0599505 10 2011 7 1315
1789 2.72658 -0.732628 4.37949 91 77 64 0.558498 8 2070 10 1958 7 1331
48 -11.227 3.24954 3.57801 193 245 255 0.522108 2 1380 3 1400 1 546
1790 2.84134 -0.975874 4.42043 175 155 122 0.686603 8 2073 10 1290 7 1333
49 -8.48505 3.97027 3.45928 239 237 237 1.10822 2 1404 6 454 1 573
1791 2.75768 -0.767734 4.29742 65 56 46 0.586802 8 2071 10 2492 7 1334
50 -9.86519 -1.28151 3.39994 4 4 4 2.01925 1 631 2 1426 3 1917 5 1516
1792 2.80998 -0.961902 4.35014 72 62 53 0.398216 8 2075 10 2494 7 1335
51 -9.65729 -1.04262 3.44406 50 54 51 0.513318 2 1427 3 1425 1 632
1793 2.74976 -0.961446 4.31026 127 116 101 0.896154 8 1481 10 2023 7 1336
52 -9.65729 -1.04262 3.44406 50 54 51 0.513318 2 1428 3 1426 1 633
1794 2.74976 -0.961446 4.31026 127 116 101 0.896154 8 1482 10 2024 7 1337
53 -12.4129 2.61611 3.29924 181 178 166 1.09595 2 579 3 1919 6 500 1 637 4 2081 5 2065
1795 2.7827 -0.969915 4.28657 64 55 46 0.64721 8 2077 10 2025 7 1338
54 -12.3892 2.91764 3.46334 254 254 254 0.355566 2 489 3 567 1 639
1796 2.81312 -1.09072 4.38103 158 144 109 0.28548 8 1483 10 1960 7 1339
55 -11.6164 2.83759 3.394 174 166 141 1.12009 2 1433 6 503 1 640 3 2263
1797 2.746 -1.0823 4.34816 60 55 44 1.31736 8 2078 10 1395 7 1341
56 -11.6228 2.81997 3.36007 232 241 241 1.2464 2 583 3 1920 6 505 1 641 2 584
1798 2.83731 -1.17283 4.26267 166 151 118 0.181508 8 1489 10 2031 7 1344
1799 2.85853 -1.2309 4.34091 87 63 39 0.219375 8 2080 10 2032 7 1345
58 -9.24823 -3.08166 3.34316 34 29 24 0.260297 2 591 1 652
1800 2.89199 -1.36344 4.44892 105 86 58 0.0871349 8 1493 10 1967 7 1346
1801 2.90757 -1.39896 4.41403 162 147 120 0.387676 8 1495 9 2142 10 1968 7 1347
60 -10.6644 -2.81981 3.26948 14 14 14 1.13415 2 600 1 666
1802 2.87871 -1.33517 4.22905 163 149 119 0.534503 8 1545 10 2035 7 1348
61 -10.2032 -1.3446 3.22795 4 5 5 1.52173 2 611 3 633 4 600 1 680 5 1515
1803 2.61309 -0.372896 4.12806 187 170 147 0.41473 8 2104 10 2099 7 1441
62 -13.2885 2.40257 3.06827 224 219 202 0.238893 3 1454 4 1543 5 652
1804 2.8463 -1.16643 4.00793 159 144 121 0.36029 8 2108 10 2530 7 1442
63 -10.4963 -1.27919 2.92085 43 45 43 0.438928 2 1476 3 1476 4 662 1 715 6 564
1805 2.82414 -1.17072 3.93893 154 139 107 0.390468 8 1613 10 2100 7 1443
64 -10.4963 -1.27919 2.92085 43 45 43 0.438928 2 1477 3 1477 4 663 1 716 6 565
1806 2.77111 -1.73234 4.12922 117 44 40 2.28072 8 2115 10 2036 7 1448
2049 2.74315 -0.955457 4.43706 170 151 117 2.11307 8 3276 10 3341 7 3276
308 -11.5258 3.22415 3.90789 241 246 249 0.141211 2 1817 3 2208 1 2094
2050 2.76881 -0.776621 4.34367 74 64 52 1.03021 8 3463 10 3357 7 3277
309 -11.5625 3.25472 3.9101 250 251 251 0.555531 2 1818 1 2095 6 1922
2051 2.8051 -1.12804 4.2603 169 153 121 1.14467 10 3358 7 3278 8 3277
310 -10.1274 3.63737 3.73924 231 225 199 0.158811 2 1823 1 2099
2052 2.87369 -1.26027 4.23685 74 73 76 1.04473 8 3475 10 3467 7 3279
311 -9.62106 3.46921 3.70075 146 141 133 1.32799 2 426 1 2103
2053 3.02617 -1.51285 4.47296 26 25 22 0.749136 8 3464 9 3734 7 3281
312 -8.79336 -3.19342 3.65899 27 29 32 0.43165 2 1348 3 535 1 2123
409 -11.3528 -1.57877 3.35516 173 153 121 0.933289 2 1882 5 1508 1 2568 3 1907
2150 2.98214 -1.63957 4.37291 155 59 43 0.538884 7 272 10 1970 8 1501
2055 2.74476 -0.949398 4.11594 169 149 118 1.52052 8 3474 10 3474 7 3303
410 -11.3563 -1.57827 3.35477 187 172 146 1.03271 2 1883 1 2569 3 1908
2151 -2.8692 -3.77627 3.79086 62 61 39 0.297798 9 631 8 1516
2056 3.0231 -1.91747 3.75291 145 133 114 1.41701 8 3306 9 3754 10 3382 7 3322
411 -11.2825 -1.49235 3.35856 184 173 151 1.17851 2 1884 5 1509 1 2570 3 1909 4 1537
2152 2.99898 -1.57361 4.04958 140 51 37 1.61929 9 2696 8 1546
2057 3.0231 -1.91747 3.75291 145 133 114 1.41701 8 3307 9 3755 10 3383 7 3323
316 -12.5914 2.67421 3.66619 151 158 179 1.00504 2 1365 1 2133 3 557
413 -10.8981 -1.38477 3.36413 196 192 178 1.08318 2 1891 3 1912 1 2573
2154 2.98717 -1.5833 3.89597 119 57 49 1.19041 9 2196 10 2167 8 1619
2059 2.95931 -1.77123 3.55723 152 138 117 0.987428 8 3492 9 3771 10 3490 7 3335
414 -10.3757 -1.49767 3.37218 193 192 180 0.524895 4 2447 1 2574
2155 3.15908 -2.19361 3.69008 112 35 28 1.09738 9 1694 10 2243 8 1683
2060 2.99763 -1.7263 3.43822 29 28 23 0.601387 8 3494 9 3905 10 3500 7 3337
415 -8.22502 -1.89254 3.40437 208 198 164 2.43512 2 1885 1 2575
2156 3.15908 -2.19361 3.69008 112 35 28 1.09738 9 1695 10 2244 8 1684
2061 2.99763 -1.7263 3.43822 29 28 23 0.601387 8 3493 9 3904 10 3499 7 3338
320 -12.0917 3.02155 3.54761 198 153 150 0.177071 2 1373 3 1879 1 2139
417 -9.64679 -2.41228 3.37366 139 116 75 0.807859 3 1899 4 1524 1 2587 5 1485 6 1429
2158 -4.43997 -3.62652 2.41778 16 24 29 0.267897 9 1200 8 1890
2063 -3.27287 -3.46529 2.29306 9 9 8 0.997776 9 3387 7 3394 8 3173
2065 2.8102 -0.998864 4.54591 68 62 52 0.782412 10 3456 7 3436
324 -9.63752 -2.08776 3.45437 23 25 24 1.01316 3 591 4 531 1 2158 2 1416
420 -11.3172 -1.46252 3.15958 193 189 174 1.78316 2 1923 1 2600 3 1948
2161 3.10021 -2.00373 3.54704 64 52 40 1.15527 9 2269 10 2596 8 2192
2066 2.83014 -1.32933 4.35213 168 153 126 0.178562 8 3466 10 3466 7 3448
325 -9.61997 -2.08962 3.4546 24 25 25 0.675302 2 1417 1 2159 3 592
2067 2.72869 -0.624348 4.1532 69 61 50 1.55643 8 3592 10 3543 7 3461
422 -12.7209 2.93376 3.07043 192 198 203 0.836342 2 2336 3 2558 1 2605
2163 -2.99282 -4.29254 2.39204 169 170 158 0.544561 9 2428 8 2275
2068 2.72869 -0.624348 4.1532 69 61 50 1.55643 8 3591 10 3544 7 3462
327 -9.94733 -1.25501 3.377 17 16 13 0.053871 2 1892 1 2169
2069 2.80823 -0.736646 4.1227 171 151 120 2.33939 8 3472 10 3473 7 3463
328 -11.6683 2.81689 3.33407 175 164 131 0.330825 2 1894 3 1921 1 2171
424 -10.2928 -1.40732 3.05223 35 30 22 0.471398 2 1951 1 2620 3 635
2165 0.847652 -3.38557 4.92981 81 71 46 1.99999 7 2790 9 2595 8 2431
2070 2.52787 -0.875405 3.99518 68 61 47 1.43225 8 3473 10 3475 7 3464
329 -11.6001 2.87515 3.37838 254 255 254 0.190558 2 1895 1 2172
425 -10.3001 -1.42759 3.01471 10 10 10 1.45454 2 1953 1 2621 4 661
2166 3.11546 -2.23642 4.42851 149 139 118 0.645945 10 2755 8 2463
2071 3.11014 -2.11448 4.08916 82 69 55 1.44877 8 3476 9 3891 10 3476 7 3465
330 -9.04208 -3.23331 3.43202 25 24 20 1.01468 2 1413 1 2177 3 581
2072 3.07464 -2.20346 3.93183 147 134 114 0.443954 8 3485 9 3893 10 3478 7 3466
427 -12.3255 2.93528 2.49637 253 254 254 0.297549 2 2352 3 2581 5 2756 1 2626
2168 -3.30872 -3.01348 3.02589 86 28 17 0.774291 9 3343 8 2626
2073 3.07464 -2.20346 3.93183 147 134 114 0.443954 8 3486 9 3894 10 3479 7 3467
332 -9.98153 -1.99716 3.28638 27 27 27 1.13015 2 1439 1 2188
428 -9.53102 -3.17229 3.12365 20 20 18 2.42808 4 1577 1 2645 3 1438
2169 -5.08278 -5.04993 3.1402 126 126 116 0.239463 9 2332 8 2630
2074 3.08501 -2.15471 3.68289 118 41 31 1.48771 8 3605 9 3900 10 3556 7 3475
333 -11.3422 -1.57915 3.15462 192 176 152 1.39444 2 1920 1 2191
429 -10.907 -1.59555 2.64729 6 6 6 1.74025 2 1981 1 2662
2170 -2.87797 -4.30465 2.27683 43 44 41 1.28438 9 2429 8 2649
2075 2.8219 -2.36447 2.97274 113 99 74 0.755528 9 3916 7 3500
334 -11.3422 -1.57915 3.15462 192 176 152 1.39444 2 1921 1 2192
430 -11.1111 -1.64108 2.48651 12 12 12 0.575113 2 2395 5 2493 1 2663
2171 1.79337 -3.14202 5.16535 115 101 69 1.11108 7 2417 9 3235 8 2765
2076 -4.43721 -3.636 2.37911 15 23 29 2.25197 9 3172 7 3531 8 3203
335 -10.2108 -1.32487 3.21472 16 16 12 0.317252 2 1449 1 2199
431 -9.65889 0.55533 2.62039 192 177 148 1.27945 2 2681 1 2667
2172 3.13142 -2.23819 4.341 141 128 109 0.795877 9 3004 10 2771 8 2793
2077 -0.700243 -3.87499 5.19877 58 57 46 2.46442 8 3562 9 3945 7 3539
432 -6.86627 0.68892 2.86639 74 77 54 0.164729 2 2033 1 2673
2173 2.82518 -1.48727 4.15538 178 161 131 1.3343 7 2536 9 2666 10 2769 8 2816
2078 -0.700243 -3.87499 5.19877 58 57 46 2.46442 9 3946 7 3540 8 3563
337 -12.3979 2.99392 3.07075 219 219 217 0.0820141 2 1931 1 2203
433 -11.7817 -1.78906 2.28044 133 113 74 0.693561 3 2317 4 2494 1 2690 6 2090
2174 1.46205 -3.23661 5.92046 84 76 55 0.895077 7 2777 9 3467 8 2986
2079 -1.4805 -4.11501 4.93394 80 70 53 1.0228 9 3710 7 3542
338 -12.3979 2.99392 3.07075 219 219 217 0.0820141 2 1932 1 2204
434 -7.00608 0.560155 2.71182 134 60 44 2.57159 2 2072 1 2697
2175 2.32235 -2.99686 5.92532 99 87 59 0.985315 7 2781 9 3480 8 2994
2080 -0.566603 -3.91234 4.94791 57 54 46 0.832505 8 3567 9 3861 7 3547
435 -6.98003 0.591325 2.73778 39 37 28 0.8737 2 2424 1 2698 6 1568
2081 1.18553 -3.30593 5.04483 194 170 125 1.64885 8 3579 9 3951 7 3551
2082 1.18553 -3.30593 5.04483 194 170 125 1.64885 8 3580 9 3950 7 3552
2083 2.8442 -1.1301 4.60063 143 129 97 1.78092 8 3583 10 3533 7 3565
342 -10.4624 -1.31666 2.8992 195 190 165 1.24701 2 1954 3 676 4 1614 1 2243 6 1518
438 -8.5124 -1.09578 4.41211 8 9 9 1.75738 1 2772 3 2463
2179 2.93265 -1.3145 3.79072 144 132 114 0.529064 7 3117 9 3554 8 3079
2084 2.25119 -3.10609 4.40434 38 33 28 0.887771 9 4033 7 3571
343 -12.2226 2.68444 2.36554 135 68 34 1.09251 2 1985 3 2309 1 2245
2085 2.76403 -1.06667 4.05306 61 56 46 2.01272 8 3593 10 3545 7 3576
344 -12.2506 2.65411 2.32627 148 99 34 0.78952 2 1515 3 1987 4 2132 5 2128 1 2246 6 1535
440 -8.37652 -2.4955 4.15572 10 10 10 0.0541868 2 1757 1 2775
2181 -0.642657 -3.87492 5.18958 54 53 42 0.620857 9 3703 8 3240
2086 2.84685 -1.44817 4.04992 50 45 38 2.15706 8 3692 10 3546 7 3577 9 3964
345 -11.4711 3.0418 2.46871 163 163 158 0.55747 2 1987 1 2247 3 1989
441 -8.66187 -2.15208 4.1893 8 8 8 2.93416 5 372 1 2778
2182 2.78323 -2.86896 5.89931 98 88 58 2.58275 7 3245 9 3858 8 3253
2087 3.07829 -1.7137 4.14733 110 42 37 2.03269 8 3693 9 4043 10 3605 7 3578
346 -10.9057 3.05383 2.54961 193 181 146 0.237785 2 1988 3 2312 1 2248
442 -8.65977 -1.21438 4.26699 174 152 106 0.0817948 3 2149 1 2780
2183 10.5545 -4.19724 3.25748 27 26 22 1.34424 9 3323 8 3323
2088 2.89571 -1.32105 3.92287 151 137 112 2.11945 8 3600 10 3551 7 3582
347 -10.8202 3.06854 2.32022 137 89 32 1.39032 2 1989 3 2321 1 2249
444 -9.02112 -1.62079 3.97821 22 24 24 2.55018 2 2240 3 2170 4 1998 5 1387 1 2791 3 1819
2185 3.0106 -2.37047 2.98239 119 105 79 1.19366 9 3795 10 3512 8 3331
2090 2.00827 -2.09054 2.50143 100 94 77 3.05741 9 3922 7 3609 8 3634
445 -8.99451 -1.6287 3.97355 25 26 26 0.552495 4 1999 1 2792
2186 2.99651 -2.30534 2.75865 76 43 27 0.062747 10 2362 8 3337
2091 -3.43325 -3.19718 2.26013 37 36 31 2.68773 9 3933 7 3624 8 3650
446 -10.2533 3.23387 4.27784 122 140 136 0.400827 2 2539 6 1888 1 2796
2187 3.10919 -2.11453 4.08865 84 72 58 1.71611 9 3892 8 3477 10 3477
2092 2.08046 -3.05648 5.83802 114 99 67 1.58865 8 3665 9 4014 7 3635
447 -9.95311 3.34821 3.99568 222 221 215 0.158215 2 2557 1 2804
2188 -1.60722 -4.1211 3.46797 137 148 104 0.400216 7 3487 9 3779
2093 -0.558767 -3.79886 4.68842 164 162 149 3.20162 8 3674 9 4028
352 -10.5754 -3.12829 2.57737 14 14 14 1.94515 4 757 1 2300 3 731
448 -9.08694 3.94755 3.92275 221 221 218 0.814973 2 2558 1 2806
2189 3.01251 -1.7888 3.31068 165 144 121 1.28305 9 3909 10 3501 8 3503
2094 2.76139 -0.988831 4.26269 69 58 44 0.405584 10 3601 7 3647
353 -10.8626 -2.60219 2.54103 24 24 23 1.35479 1 2302 2 1563 6 716
449 -9.21478 -1.87703 3.79815 25 26 25 1.37508 2 2259 3 2186 4 2020 5 1412 1 2813 6 1358
2190 3.0931 -2.42529 3.23226 138 124 96 2.60436 9 3910 10 3568 8 3504
2095 2.76139 -0.988831 4.26269 69 58 44 0.405584 10 3602 7 3648
354 -10.9022 -2.48136 2.54046 21 21 21 1.1369 5 828 2 1565 4 768 1 2303
2097 2.12512 -0.338798 3.99736 69 61 50 2.64694 8 3764 10 3648 7 3654
452 -10.5981 -1.32357 3.78541 209 200 165 2.65523 2 2263 1 2819
2193 1.28102 -3.33516 5.82658 95 80 53 1.73918 9 4119 8 3795
2098 2.12512 -0.338798 3.99736 69 61 50 2.64694 8 3765 10 3649 7 3655
357 -7.30683 -0.385218 2.62906 198 185 136 0.599063 2 2087 4 1691 1 2320
453 -10.5126 -1.29232 3.78029 20 22 21 0.424908 2 2264 4 2378 1 2820
2194 3.89758 -2.63975 5.15288 157 141 107 2.82175 9 4153 8 3865
2099 3.24178 -2.2813 4.10637 39 32 27 1.98488 8 3694 10 3650 7 3656
2100 2.8735 -1.2956 3.62398 147 132 110 2.08159 8 3771 10 3654 7 3717
359 -6.99919 -0.526451 4.57803 14 15 15 3.19878 3 2432 1 2380
456 -10.2734 -1.24597 3.72948 14 14 14 2.64991 2 2288 3 2198 1 2822
2102 2.73354 -1.66026 3.13131 111 74 25 1.64946 8 3778 10 3659 7 3725
457 -10.6473 -1.11057 3.82244 16 17 15 2.63481 2 2580 1 2823
2198 2.9027 -1.46796 3.74638 160 143 123 0.366438 10 595 9 1692
2103 2.71846 -2.25502 6.09892 196 171 138 1.63788 8 3802 9 4117 7 3744
458 -9.63141 -1.31746 3.69822 14 14 14 0.83073 2 2619 1 2824
2199 2.65233 -2.73055 5.08289 109 97 69 0.641638 10 3438 9 3246
2104 2.75922 -2.25569 6.11174 195 170 137 2.65017 9 4116 7 3745 8 3832
363 -7.86814 -1.23477 4.56237 161 148 128 0.258084 2 2765 1 2407 5 3054
459 -12.6746 2.72744 3.93328 160 176 196 0.554696 2 2268 1 2827 3 2511
2200 -10.8643 -6.76713 3.28646 164 159 140 0.976312 5 3274 6 3294 4 3208 3 3172
2105 2.3618 -0.0248152 4.80708 75 71 60 0.0429309 10 3699 7 3775
364 -6.91839 -0.326934 4.38742 57 56 51 0.870684 2 2172 1 2410
460 -12.4076 2.99172 3.81792 207 208 208 0.714054 2 2585 3 2513 5 2688 1 2828
2201 -13.1167 2.36285 3.66219 194 191 162 1.30831 5 3263 4 3198 6 2976 3 2916
2106 3.07496 -1.61595 3.49414 144 124 104 1.4225 8 3846 9 4158
365 -7.95356 -2.59424 4.39224 177 149 117 2.96368 2 2181 1 2414
461 -12.4065 2.99108 3.81836 205 207 208 0.781219 3 2514 5 2689 1 2829
2202 -6.70813 -2.4975 2.69669 77 48 17 1.02509 5 3159 6 3037 4 3116 2 3280 3 3103
2107 -0.568636 -3.98409 4.86042 80 79 68 1.58788 8 3863 9 4152 7 3804
366 -7.7707 -1.17337 4.45392 25 26 26 1.98824 4 2295 1 2416
2108 3.18108 -2.11071 3.38601 35 31 27 0.7233 8 3894 9 4186 7 3811
464 -11.5444 -1.62974 3.57894 191 161 122 2.51821 2 2609 4 2410 1 2843
2205 -10.9153 -6.72789 5.14734 80 77 59 1.42583 5 2316 6 2688 4 2647 3 2138
2110 1.30698 -3.38132 5.97326 110 98 65 0.682278 7 26 9 1356 8 132
465 -11.383 -1.5823 3.57599 189 172 146 1.48417 2 2611 3 2230 4 2411 1 2844
2206 -6.73946 -1.19333 4.49038 12 13 15 1.40661 5 2276 4 2275 6 1850 3 2430
2111 -0.603103 -3.46809 5.30988 123 117 96 0.0608827 9 1361 8 133
466 -11.383 -1.5823 3.57599 189 172 146 1.48417 2 2610 3 2231 4 2412 1 2845
2207 -5.39626 -3.73158 3.0914 16 10 7 0.734591 5 1606 6 1555 4 2134 3 2600
2112 2.7947 -1.06484 4.69314 176 155 112 0.152211 10 80 8 307
2113 2.8927 -1.42001 4.70241 42 44 54 0.54327 10 90 8 317 9 487
372 -8.81662 -1.42824 4.16352 19 19 19 0.802023 2 1767 3 1798 1 2445
2114 2.92478 -1.46818 4.46017 161 145 121 0.21352 10 211 8 380 9 527
373 -8.83149 -1.38043 4.18411 7 7 7 1.5798 2 1769 3 1787 1 2446
469 -9.67318 -1.17349 3.54634 16 16 13 2.21647 2 2289 3 1867 1 2850 5 570
2210 -12.8573 2.77514 3.47086 247 253 253 0.454232 5 1456 4 2046 2 1369 3 1386 1 2136
2115 2.97282 -1.55182 4.32526 159 55 39 0.54084 7 270 10 365 8 386
374 -8.63243 -2.37014 3.97987 9 9 9 2.33925 4 421 1 2451 2 1776 3 1304
470 -9.15809 -1.1739 3.65906 8 8 8 0.587662 2 2623 1 2851
2211 -6.45625 -2.51675 4.41017 32 31 26 0.722671 5 1264 6 219 4 1885 3 1702
2116 3.00383 -1.87313 4.53629 151 119 103 0.143513 9 1559 10 1312 8 388
375 -8.86172 -2.2337 4.00048 6 6 6 0.610896 2 1794 5 437 1 2452 3 1305
471 -12.8388 2.76643 3.6817 172 180 202 1.13914 2 2624 3 2528 1 2853
2212 -7.08233 -4.19229 2.26608 24 24 22 0.467183 5 901 6 935 4 1714 3 2032
2117 3.00383 -1.87313 4.53629 151 119 103 0.143513 9 1560 10 1313 8 389
376 -8.96921 -1.85544 4.00165 8 8 8 0.493624 3 1310 5 439 1 2453
472 -12.6396 2.89997 3.68929 210 211 210 0.641794 2 2844 1 2854 6 2401
2213 -5.34099 -3.59098 3.04907 104 71 24 0.314699 5 809 6 705 4 1669 3 2342
2118 3.06163 -2.03286 4.53982 129 103 87 0.568563 7 172 9 541 10 1316 8 392
377 -8.94244 -1.57589 3.98488 11 11 11 1.03542 2 1797 3 1818 4 1396 5 1390 1 2455 6 385
473 -11.7991 2.84443 3.4857 254 255 253 0.715883 2 2293 5 2710 1 2856
2214 -5.37824 -3.66615 3.11378 101 78 53 0.636651 5 804 6 698 4 1668 3 2003
2119 3.06163 -2.03286 4.53982 129 103 87 0.568563 7 173 9 542 10 1317 8 393
378 -8.98494 -1.37793 4.05109 20 20 16 0.00155125 4 1972 1 2459
474 -11.4671 3.22641 3.75038 199 235 255 0.586265 2 2626 3 2729 1 2857
2215 -7.35232 -2.65511 4.533 7 8 6 0.770846 5 1268 6 220 3 1716 2 2137 4 1265
2120 3.08991 -2.07496 4.54536 142 113 97 0.193005 7 175 9 1565 10 1319 8 394
379 -8.84084 -0.802971 3.97051 46 51 49 0.908699 2 2247 3 2176 4 1978 6 1368 1 2461 5 1963
475 -11.2597 3.26294 3.63958 170 243 255 0.896304 3 2250 1 2858
2216 -13.0617 2.48234 4.23931 250 254 253 0.379354 5 467 4 373 3 461 2 343
2121 3.08991 -2.07496 4.54536 142 113 97 0.193005 7 174 9 1566 10 1318 8 395
380 -8.84084 -0.802971 3.97051 46 51 49 0.908699 2 2246 3 2175 4 1977 6 1367 1 2462 5 1962
476 -9.13866 -3.23656 3.52175 16 16 14 1.17367 4 2399 5 2011 1 2872 3 2252 6 1989
2217 -13.3249 2.39957 3.60601 236 241 245 1.22227 5 2706 6 1403 3 2526 4 2918
2122 -1.36032 -4.04405 3.95046 183 176 154 0.299643 7 282 9 628 8 414
381 -11.7391 2.80686 4.35948 254 255 254 2.13908 2 2552 3 2471 6 1885 1 2463
2123 2.9059 -1.50901 4.17414 130 58 51 0.182399 10 1412 8 473
382 -11.7275 2.80172 4.36016 254 255 255 1.03861 3 2470 1 2464 6 1886
478 -9.01879 -3.02328 3.4458 32 30 26 0.870031 2 1861 4 2057 5 1473 1 2876 6 1423
2219 -9.94179 -2.66224 3.19864 253 250 239 0.542807 4 2106 6 2024 2 2331 5 2054 3 2276
2124 3.0054 -1.75101 4.21818 123 42 35 0.809132 9 1601 10 1414 8 476
479 -9.65907 -2.37916 3.44914 21 21 21 0.518637 2 2304 4 2033 5 1437 1 2878 3 1901
2220 -9.94179 -2.66224 3.19864 253 250 239 0.542807 4 2105 6 2023 2 2330 5 2053 3 2275
2125 2.98033 -1.72191 4.02939 137 42 31 0.533442 9 1633 10 1520 8 477
384 -8.82097 -2.39084 3.91796 14 14 13 1.28695 5 438 1 2476 2 1793 3 1815 4 1395
480 -9.65907 -2.37916 3.44914 21 21 21 0.518637 2 2305 3 1900 4 2034 5 1436 1 2879
2221 -12.4819 2.61025 3.13687 241 247 252 1.60254 4 2449 3 2262 2 1450 1 2200 5 2066
2126 2.87768 -1.38981 3.82897 151 135 111 0.706058 9 729 10 588 8 560
385 -8.95733 -2.31202 3.81231 8 8 7 1.23353 4 1431 5 507 1 2478 2 1807
481 -9.69204 -2.12987 3.44763 25 25 25 0.838523 2 2307 3 2254 4 2036 1 2880 5 1442 6 483
2222 -11.0969 -1.47819 3.56777 190 180 159 1.27327 4 2414 5 2024 3 2234 6 1967 2 2613
2127 2.87768 -1.38981 3.82897 151 135 111 0.706058 9 730 10 589 8 561
386 -9.37714 -1.32994 3.88556 15 15 13 0.150972 3 1823 1 2481
482 -11.3468 -1.53261 3.3417 25 27 25 0.286605 2 2311 1 2881 3 2257 4 2445
2223 -7.31187 -0.423456 2.66648 112 79 8 0.525528 4 2146 5 1640 3 2006 2 2086
2128 2.89892 -1.46796 3.78725 160 144 125 0.433847 9 1691 10 594 8 566
387 -9.70184 -1.0914 3.93099 226 211 161 2.13652 2 1799 1 2482
483 -12.5269 2.61944 3.37852 248 252 254 0.6707 2 2318 1 2886 3 2542
2224 -8.31603 -2.07335 4.35316 7 7 7 0.519189 4 1317 5 323 4 1318 3 1773 2 2193
2129 2.89892 -1.46796 3.78725 160 144 125 0.433847 9 1690 10 593 8 567
388 -8.63901 4.04954 3.89345 230 228 226 0.266622 2 2254 1 2487
484 -12.4082 2.60108 3.29099 171 163 143 2.2239 2 2319 3 2543 1 2887 4 3080
2225 -11.6309 -1.74357 3.3299 24 23 20 1.56239 4 594 6 489 2 1422 5 633 1 2187 3 1422
2130 3.1055 -1.99131 3.70663 122 39 30 0.301459 9 734 10 727 8 575
389 -9.03998 -2.26666 3.79432 24 24 24 2.04309 4 2017 1 2488 2 1808 5 1410
485 -12.4082 2.60108 3.29099 171 163 143 2.2239 2 2320 3 2544 1 2888 4 3079
2226 -9.45348 -0.932371 3.56889 35 36 33 0.980773 4 1484 5 573 2 1839 3 1379 1 2130
2131 3.14287 -2.26312 3.8825 134 122 105 0.912964 9 1696 10 604 8 576
390 -12.5052 2.6205 4.03704 242 249 252 2.50106 2 411 5 1965 1 2493 3 472
486 -11.5798 2.87551 3.46016 254 255 255 1.61259 2 2643 3 2743 6 2749 1 2889 2 2853
2227 -11.1031 -1.47781 3.56948 192 183 162 1.6104 3 2233 4 2413 6 1966 5 2023 2 2612 1 2847
2132 3.14287 -2.26312 3.8825 134 122 105 0.912964 9 1697 10 605 8 577
391 -11.5496 3.24877 3.90934 248 251 253 0.217251 2 2270 1 2498 6 1921
487 -11.6985 -1.76382 3.12503 21 20 17 2.55429 2 1446 5 636 4 597
2228 -9.02436 -2.31536 3.78781 26 26 26 1.65199 3 2184 2 2561 4 2367 5 1979 1 3057 6 1357
2133 2.86645 -1.2629 3.52277 166 145 123 0.612958 9 1735 10 716 8 678
392 -11.4739 3.28708 3.91285 238 244 247 0.591394 2 2271 3 2517 1 2500
488 -10.0391 -2.04112 3.27745 26 27 26 1.19433 4 2058 1 2892 5 1490 6 485
2229 -10.8586 -2.68772 2.53348 20 20 20 0.866816 3 1980 6 1562 4 2127 5 2123 1 2958 2 2394
2134 3.01935 -1.77132 3.42932 121 109 29 0.0786982 9 1738 10 1740 8 681
393 -10.1163 3.59654 3.81417 183 177 170 0.136955 2 2272 1 2501
489 -9.43601 -3.13237 3.21051 253 247 233 1.47442 4 2101 6 2019 2 2346 3 2273 5 2088
2230 -12.8874 2.77434 2.57159 162 170 173 1.03816 3 2570 4 2751 6 2051 2 2351 1 2625
2135 3.04016 -2.00624 3.68282 38 29 19 0.423653 9 735 10 728 8 682
394 -8.62317 4.06696 3.78052 120 131 146 0.821006 2 2277 6 1925 1 2509
490 -9.43161 -3.13194 3.2109 253 247 233 1.39004 4 2102 6 2020 2 2347 3 1937 3 2274 5 2089
2231 -12.8743 2.77528 2.49277 252 253 252 0.741511 3 2299 4 2489 2 1956 1 2224
2136 3.07571 -2.01018 3.65807 85 58 38 0.437894 9 738 10 1676 8 683
395 -7.83581 4.30475 3.70336 191 194 200 0.00484632 6 2379 1 2515
2137 -2.03795 -5.21792 3.29744 49 51 43 3.87233 9 923 8 772
396 -8.80141 -3.16595 3.66219 19 21 20 0.254804 2 1836 4 1430 5 561 1 2518 3 1369
492 -16.4579 1.42609 2.44136 201 181 136 1.14063 2 2350 3 2567 4 2948 1 2910 2 2902
2233 -12.3907 2.98922 2.84116 200 196 188 0.712095 2 1935 1 2205 3 2283 5 2467 1 2606
2138 -3.70009 -4.23035 3.3543 38 42 40 0.105815 9 1793 8 773
397 -8.75488 -3.21635 3.59801 33 37 37 0.497154 5 560 1 2519 3 1371 4 1467 6 426
493 -12.7207 2.94817 2.7324 187 185 184 2.34864 3 2571 5 2746 1 2915
2234 -12.2639 3.03276 3.64177 253 254 254 1.42509 3 1878 1 2137 2 487 5 531 1 541
2139 -4.60421 -4.98819 3.22979 180 179 169 0.179037 9 971 8 808
494 -12.0743 2.98105 2.75057 190 191 195 0.325578 2 2668 1 2916 3 2573
2235 -12.9945 2.79194 3.66797 171 246 255 0.648753 2 1841 1 2132 3 1870 5 1995 4 2390
2140 3.14378 -1.85982 2.61694 72 63 43 0.128074 7 868 9 1810 8 823
399 -10.7583 -2.10852 3.68641 12 12 12 1.90691 2 1837 1 2521
495 -12.2402 2.99402 2.49653 240 247 253 0.838856 2 2669 3 2776 5 2960 1 2918
2236 -8.50078 -2.427 4.07408 196 174 132 1.38083 4 344 1 1989 3 393 2 1226 1 1280
2141 2.22627 -2.27836 2.27872 18 19 15 0.303801 9 1015 8 898 10 1841
400 -11.3881 -1.69314 3.6059 19 20 18 1.09964 2 2284 1 2523 4 2408 3 2229
496 -7.95845 0.217666 3.10443 224 222 219 3.43785 5 3377 1 2920
2237 -8.50538 -2.42661 4.07446 194 171 128 1.17208 4 343 1 1988 2 1225 1 1279
2142 -3.6922 -3.58429 3.02454 168 168 155 0.92756 7 1753 9 2342
497 -6.53984 0.678803 3.15187 108 92 84 3.07186 2 3070 1 2928
2238 -8.24087 -1.91469 4.37868 21 21 18 0.698053 2 1148 1 1935 3 276 4 240
2143 -2.52917 -4.19976 2.28364 43 44 41 0.457307 9 1085 8 980
402 -11.7452 2.81185 3.74575 247 250 250 1.51756 3 2516 1 2535 2 2625
498 -10.3305 -1.44713 2.94157 18 18 18 0.585435 4 2745 1 2933
2239 -12.2659 2.8283 2.46587 177 173 168 0.519112 2 1490 1 1628 3 1510 5 1602
2144 -2.66282 -4.23679 2.28426 43 43 41 0.519023 9 1907 8 983
403 -7.76076 4.29665 3.55384 237 238 241 0.178183 6 462 1 2552
499 -6.97653 0.604413 2.95822 43 46 34 2.19048 2 2683 6 649 1 2939
2240 -12.3409 2.8312 2.45432 254 255 253 0.434306 2 1516 1 1627 3 1509 5 1601
2145 -2.84678 -4.24385 2.39026 67 68 59 0.727812 9 1094 8 986
404 -10.6604 -3.72026 3.51959 16 17 17 0.943622 2 1859 3 579 1 2555
2146 -2.75574 -4.27476 2.29913 25 25 23 0.673352 9 1096 8 990
405 -9.47197 -2.16999 3.53241 6 6 5 0.802001 3 1863 4 1477 1 2557 5 1441 6 1431
501 -11.7576 -1.81936 2.22783 17 16 13 1.9951 4 2761 5 2765 1 2959 2 2710 3 2585
2242 -9.30676 -1.39323 3.64899 37 40 40 0.428785 2 1355 1 1452 3 1374 4 1434
2147 -2.67191 -4.35607 2.29486 73 74 68 0.45871 9 1906 8 991
406 -11.4564 -1.70292 3.54868 24 24 20 1.7955 3 1864 1 2562 6 1394
502 -11.4019 -1.66198 2.28824 103 92 66 0.796623 3 2319 4 2129 5 2125 1 2960 2 2066 3 1997 6 724
2243 -12.9939 2.80476 2.8044 245 249 249 0.774393 2 1451 1 1541 3 1955 4 2113 5 2099 6 574
2148 -2.71949 -4.3675 2.29587 74 76 68 0.513921 9 1911 8 992
503 -11.4956 -1.68803 2.23557 16 17 14 0.931014 3 2318 5 2126 1 2961 2 2420
2244 -7.2047 -4.14482 3.11542 57 34 17 2.24609 6 1513 3 1977 4 685 3 721 5 730
2149 2.93002 -1.50073 4.66089 169 156 127 0.201948 7 158 10 1229 8 1452
556 -11.5177 3.13719 2.74927 197 195 193 0.929555 2 2910 3 2773 1 3151
557 -10.9786 3.04287 2.69102 223 223 217 1.30785 2 2911 3 2951 1 3152
2203 -9.97429 -6.45719 5.9496 145 129 97 1.62971 5 2851 6 3105 4 3019 3 2999
558 -10.9786 3.04287 2.69102 223 223 217 1.30785 2 2912 1 3153 3 2952
559 -11.0762 -1.67563 2.52585 4 4 4 1.06297 3 2580 4 2759 1 3166 2 2695 5 2492 6 2089
560 -11.4385 -1.62065 2.22487 36 35 30 0.810881 3 2587 1 3179 2 2712
561 -6.59622 0.694668 2.81829 22 20 15 1.01578 2 2720 1 3184
562 -14.5063 11.2991 0.203189 148 145 136 0.797838 2 3093 6 3215
2208 -5.39626 -3.73158 3.0914 16 10 7 0.734591 5 1607 6 1556 4 2133 3 2601
2209 -8.38814 -5.66748 3.28656 147 139 116 0.526218 5 1540 6 1461 4 2087 3 2264
564 -8.33087 -2.94156 4.36554 14 13 10 2.63228 2 2989 1 3234
565 -8.21927 -1.37799 4.41169 184 181 169 1.81176 3 2856 1 3235 6 2952
566 -8.13599 -0.70794 4.35742 40 39 36 1.45452 2 2998 1 3239
569 -7.87825 3.91452 4.35534 252 254 254 2.35535 6 2960 1 3243
570 -8.88873 -1.50528 4.07707 184 158 108 0.328064 2 3008 1 3249
1807 2.98798 -1.58795 4.02864 154 56 42 1.51407 8 1547 10 2534 7 1449
66 -17.0054 1.31161 2.33576 156 104 32 0.448208 2 636 3 683 4 711 1 718 5 768
571 -8.88873 -1.50528 4.07707 184 158 108 0.328064 2 3009 1 3250
1808 3.11097 -2.19621 4.05985 132 114 93 0.415612 8 1553 9 2200 7 1451
67 -12.9313 2.79247 2.73502 254 255 253 0.953152 3 1484 4 2114 1 722 5 1569
2218 -6.40751 -1.56443 2.66333 36 18 10 0.786372 4 2157 5 1675 3 2352 2 2459
1809 3.11293 -2.19611 4.05994 138 120 98 0.322683 8 1554 9 2201 10 2105 7 1452
68 -12.8437 2.8076 2.67195 149 146 140 0.0623204 2 644 3 695 1 725
1810 1.78243 2.51175 3.86981 54 55 50 0.15269 10 2128 7 1483
69 -12.4889 2.61819 2.58181 237 242 252 0.984991 2 1483 1 728 3 702
574 -9.76931 -1.13494 3.94232 204 195 152 1.79626 2 2804 3 2714 4 2686
1811 2.42706 0.0678794 3.70674 156 137 114 0.231953 8 2174 10 2222 7 1523
70 -12.9011 2.76096 2.51758 147 149 147 0.342122 3 698 4 723 1 731
575 -9.80443 -1.12798 3.9541 221 206 159 2.79013 2 2805 1 3268
1812 2.7676 -0.937497 3.70826 166 151 125 0.206977 8 2178 10 2583 7 1525
71 -12.9011 2.76096 2.51758 147 149 147 0.342122 3 699 4 724 1 732
576 -9.74642 -1.13811 3.93828 201 197 156 1.35258 3 2715 4 2687
1813 2.84978 -1.23498 3.91142 65 77 91 0.321483 8 1615 10 2163 7 1526
72 -12.8462 2.76523 2.52698 254 254 252 0.208984 2 648 3 1488 4 1624 1 733
577 -12.3152 2.6633 4.33841 255 255 255 1.26928 1 3273 2 3025 5 3244
1814 2.84978 -1.23498 3.91142 65 77 91 0.321483 8 1614 10 2162 7 1527
73 -12.8496 2.76724 2.52648 254 254 252 0.237289 2 647 3 1487 4 1623 1 734 5 1592
578 -8.47827 0.207213 3.93114 248 251 254 2.58218 5 463 1 3275
1815 2.94575 -1.76338 3.91461 151 88 66 0.393775 8 570 9 2199 10 2169 7 1530
74 -12.7986 2.77036 2.51669 144 142 139 0.277338 2 649 3 704 1 735 4 1625
579 -11.443 2.89989 4.23666 251 253 253 0.559417 2 3026 3 3045 1 3276
1816 3.11975 -2.14111 3.71648 138 71 56 0.491765 8 1625 9 2234 10 2555 7 1533
75 -12.4301 2.62705 2.51696 194 181 149 0.397134 2 652 3 1505 4 2120 1 736
2039 3.27207 -2.31539 3.21095 40 37 32 1.83387 8 3127 10 3412 7 3171
298 -9.00822 -1.05613 4.06085 181 164 122 2.52089 3 1282 5 1393 1 2036
592 -12.3281 2.9906 2.71188 141 145 181 1.77167 3 3080 2 2907 5 3143
183 -8.50683 3.93741 3.46129 241 242 242 1.10093 2 1851 6 453 1 1484
1924 -2.77308 -4.22657 2.39168 170 173 162 0.424614 9 2398 7 2335 8 1830
1829 2.82724 -1.12905 3.5867 138 126 111 0.205176 8 2180 10 2585 7 1629
2040 2.75873 -2.40223 3.09693 30 16 11 0.724909 8 3134 9 3583 7 3172 10 3413
299 -9.28341 -1.94241 3.8291 5 5 4 0.543424 2 1303 3 1342 4 477 1 2052
593 -12.2734 2.94159 2.59583 166 173 234 2.63837 2 3067 1 3342 3 2950
184 -8.14842 3.94255 3.47137 175 173 167 0.408875 2 1405 6 456 1 1486
1925 -2.84032 -4.24682 2.40937 133 135 118 0.409843 9 1899 7 2336 8 1831
1830 2.86871 -1.19759 3.60261 69 72 85 0.275351 8 1668 10 2228 7 1630
89 -11.0392 -1.7731 2.58086 8 8 6 2.82061 5 760 1 817 3 753
2041 2.75873 -2.40223 3.09693 30 16 11 0.724909 8 3135 9 3582 7 3173 10 3414
594 -6.8286 0.659368 2.96535 181 184 177 1.00338 2 3075 1 3351
185 -8.11401 4.06783 3.45761 243 243 240 0.467797 2 1406 6 1410 1 1487
1926 -2.81745 -4.2394 2.39147 170 173 163 0.48216 9 2418 7 2337 8 1832
1831 2.86871 -1.19759 3.60261 69 72 85 0.275351 8 1669 10 2229 7 1631
90 -10.9528 -1.82953 2.54095 10 10 11 2.60618 5 834 1 818
2042 -2.02146 -2.66977 2.28968 11 11 10 0.245128 9 3368 7 3207 8 3166
595 -11.7298 -1.88123 2.31229 201 168 114 2.76568 5 2764 1 3363 6 2499
2241 -8.54278 -1.88205 4.20269 30 29 25 0.538732 2 238 1 203 3 340 4 306
186 -8.03905 4.03914 3.4551 231 231 230 0.466738 2 1407 6 459 1 1488
1927 -2.86265 -4.25188 2.39141 171 174 164 0.477196 9 2422 7 2338 8 1833
1832 2.8911 -1.32883 3.57361 133 121 109 0.340817 8 2183 9 2748 10 2587 7 1636
91 -10.2368 1.63722 2.27872 161 146 117 0.542537 2 775 1 827 3 803 4 837
2043 -2.1356 -2.79785 2.27629 26 22 19 0.121925 9 3369 7 3208 8 2939
302 -9.64152 3.65185 3.98904 206 208 207 0.667208 2 2810 1 2068
596 -10.7497 -3.70889 2.20929 38 32 22 1.62803 1 3373 2 2949
187 -7.85896 3.92216 3.44927 254 255 254 0.311016 2 1408 1 1492
1928 -2.88382 -4.26025 2.40894 134 135 120 0.860523 9 1909 7 2339 8 1835
1833 2.8911 -1.32883 3.57361 133 121 109 0.340817 8 2184 9 2749 10 2588 7 1637
92 -6.70428 1.28893 2.80882 96 86 56 1.90814 2 1600 1 860
2044 -3.32627 -3.25587 2.34659 59 18 12 1.84779 9 3158 7 3210 8 3172
303 -8.34352 4.14338 3.90143 165 175 183 0.278861 2 2257 6 1927 1 2072
597 -6.72542 -2.64049 4.40529 173 156 121 3.13323 4 2635 5 1267
188 -9.56549 -2.13428 3.49759 7 7 6 0.346223 2 1415 3 590 4 529 5 566 1 1511
1834 2.95568 -1.40122 3.53712 119 112 107 0.475027 8 1672 10 2233 7 1638 9 1734
93 -5.05149 -2.12498 3.36331 147 124 76 1.23684 2 3180 1 862
2045 -2.94698 -4.18569 4.5246 96 91 59 2.20181 9 3213 7 3233
304 -8.78647 -3.15768 3.68289 128 131 131 0.579357 2 1350 1 2083 3 536 4 472
189 -12.4401 2.62883 3.39103 163 156 135 0.67605 2 1431 3 1918 1 1517 5 2038
1930 -3.01786 -4.2989 2.40898 132 133 118 0.539108 9 2427 7 2342 8 994
1835 2.83741 -1.43884 3.48714 46 41 35 1.05701 9 815 7 1639 10 1738
94 -11.3902 -1.61114 2.32327 14 15 14 0.726556 3 1532 1 873 2 769 4 1647 5 1626
2046 -1.27933 -4.02644 4.99461 165 152 119 1.26976 8 3241 9 3709 7 3237
305 -9.19609 -1.94166 3.80168 22 23 22 2.31617 2 1811 1 2084 3 1837 4 2018 5 1982
599 -8.76544 -1.79779 4.0702 187 165 125 0.0822944 3 2886 1 3414
2245 -8.82002 -0.839552 3.94187 207 195 153 2.46595 3 2484 4 2356 5 460 2 2245 5 2352 2 1276 3 1322 6 1366 1 1324
504 -6.87887 0.621301 2.71781 143 95 85 0.283436 2 2717 1 2964
190 -9.5287 3.41762 3.39445 166 160 135 0.0482771 2 1897 1 1519
1836 2.96926 -1.60639 3.52418 110 83 87 0.275608 8 2185 9 2751 10 2590 7 1640
95 -11.325 -1.51989 2.39815 27 28 27 0.211807 3 782 4 784 1 874 2 767
2047 2.20324 -3.00371 5.99 206 181 138 1.74182 8 3237 9 3701 7 3242
306 -9.13502 -1.32604 3.70918 229 217 168 2.19879 2 2818 1 2088
2246 -8.53191 -2.40993 4.04456 174 154 119 2.20582 4 1365 1 2439 2 1227 3 394 6 327
505 -10.6453 -3.72687 2.44613 21 21 19 1.97944 6 1560 1 2974 2 2418 3 1995 4 743 5 814 5 1622
191 -9.79654 -2.66858 3.32025 7 7 6 0.515873 3 585 1 1530 2 601
1932 -1.56223 -4.11477 5.05655 79 75 60 0.112718 8 2376 9 2544 7 2398
1837 2.96926 -1.60639 3.52418 110 83 87 0.275608 8 2186 9 2752 10 2589 7 1641
96 -11.325 -1.51989 2.39815 27 28 27 0.211807 3 783 4 785 1 875 2 768
2247 -11.3582 -1.52906 2.95324 14 14 11 2.04947 2 2662 1 2907 3 2565 1 3145
506 -7.31048 -0.372279 2.69975 90 58 26 0.662381 2 2714 3 2598 1 2976 4 2768 5 2501
192 -10.1645 -1.489 3.21177 206 196 165 1.74263 3 2280 1 1537 6 2027
1933 -1.56223 -4.11477 5.05655 79 75 60 0.112718 8 2375 9 2543 7 2399
1838 3.04316 -1.95933 3.57209 35 32 28 0.780919 8 1678 9 2267 10 2595 7 1644
591 -16.6646 1.38753 2.33287 122 69 29 0.117894 2 2903 3 2767 1 3338
182 -10.0544 6.4881 3.41128 241 245 247 1.31033 6 521 1 1483
1828 2.82724 -1.12905 3.5867 138 126 111 0.205176 8 2179 10 2586 7 1628
87 -9.64161 -0.269608 2.94725 213 200 154 0.390524 5 2476 6 2436
590 -11.6107 3.22117 3.0347 221 225 226 0.208593 2 3061 1 3325 3 3068
181 -11.3904 3.21922 3.50788 145 233 255 0.83426 2 1376 3 1883 6 452 1 1469
1922 -2.68692 -4.20038 2.39186 169 171 160 0.561322 9 2395 7 2333 8 1826
1827 2.50451 0.0728285 3.53756 146 124 102 0.697938 8 2555 10 2301 7 1627
86 -11.2122 -1.59458 2.8287 187 172 148 2.13563 2 630 4 1612 1 771
589 -11.6452 2.82329 3.29026 206 193 170 0.997577 2 3055 1 3319
180 -11.4057 3.23485 3.55196 136 231 255 0.524216 2 1375 3 1882 1 1468 3 2248
1921 -2.64271 -4.18766 2.39169 169 170 160 0.533906 9 2391 7 2332 8 1824
1826 2.35185 0.505147 3.55673 47 40 32 0.130566 10 2219 7 1614
