# 3D point list with one line of data per point:
#   POINT3D_ID, X, Y, Z, R, G, B, ERROR, TRACK[] as (IMAGE_ID, POINT2D_IDX)
# Number of points: 632, mean track length: 3.877
9533 3.03538 -2.9812 -0.411683 172 156 112 1.55001 21 2719 19 3561 20 3140
9532 3.29932 -2.59572 -2.57883 17 18 12 1.75499 20 3107 42 3853 19 3518
9531 1.98112 -2.10404 -1.98599 54 37 17 0.564101 20 3097 19 3504
9530 2.91933 -2.43844 -2.22546 129 110 68 2.0988 20 3096 19 3503
9529 3.98784 -3.80445 -2.41412 34 28 18 0.559209 20 3006 19 3488
9528 2.48109 -2.13947 -1.81254 60 30 12 0.283223 20 3086 21 2748 19 3475
9525 1.76422 -2.28888 -1.58078 19 15 9 2.07404 20 3078 21 2672 22 3519 24 4123 19 3463
9524 1.82338 -2.24749 -1.584 6 6 5 1.43183 20 2973 21 2671 22 3518 23 4324 42 3938 19 3462
9523 1.98179 -2.09748 -1.58468 37 27 16 2.38516 20 3076 21 2732 22 3555 19 3460
9522 2.00621 -2.08056 -1.56269 179 136 58 1.8179 20 3074 23 4386 19 3457 21 2670 22 3517
9521 3.27334 -2.9005 -1.61161 31 27 20 3.46165 20 3152 19 3456
9520 1.8138 -2.40235 -1.46271 156 110 38 1.09225 20 2825 23 4228 19 3453
9519 2.16056 -2.28107 -1.31573 205 158 80 0.872796 20 2968 19 3450 21 2255 22 3330
9518 3.33794 -3.04072 -0.768742 75 71 58 2.98325 21 2658 19 3446
9517 2.42609 -0.136065 -1.90832 57 34 15 1.56038 20 3131 19 3421
9516 1.91794 -2.49807 -2.27152 61 47 29 2.52192 20 3025 19 3394 21 2707
9515 1.6662 -2.30953 -2.0573 119 105 78 2.65787 20 2693 19 3388
9513 1.73815 -2.29994 -1.97452 57 29 10 2.20325 20 2869 21 2138 22 3418 23 4181 19 3374 22 3090
9512 2.03866 -2.12905 -1.79069 153 103 35 2.53861 20 2853 23 4304 21 2355 22 3242
9511 1.74171 -2.29815 -1.62829 72 37 13 2.40633 20 2837 21 2297 22 3204 23 4130 19 3339 24 4041
9510 1.73582 -2.2954 -1.58947 169 114 33 1.31364 20 2836 22 3347 23 4234 19 3338 21 2476
9509 1.89678 -2.51172 -1.65598 30 20 11 2.61964 42 3826 19 3337
9507 3.19669 -3.09897 -1.46519 128 111 69 2.40576 20 2969 19 3329 21 2583
9506 5.26368 -3.27314 -0.514423 75 70 60 0.90235 21 2819 19 3318
9505 3.20452 -3.1054 -0.517997 105 91 60 0.347544 21 2572 19 3316 20 2814
9504 2.85074 -3.06131 -0.36509 206 194 157 0.972551 19 3314 20 2963 22 3502
9503 2.838 -3.02454 -0.377466 205 193 154 0.640436 21 2652 19 3313 20 2964
9501 1.5955 -2.44169 -2.35492 178 167 130 1.92786 21 2549 42 3873 20 2921 22 3289
9500 1.70116 -2.3088 -2.35227 112 88 46 1.87144 20 2920 21 2558 23 4281 19 3270 42 3872
9499 1.77441 -2.26276 -2.40936 23 20 16 1.77231 20 2935 21 2565 22 3297 42 3787 19 3268
9498 1.69987 -2.39672 -2.33244 147 137 100 2.80794 20 3033 19 3253 22 3544
9496 3.19944 -2.47936 -2.61995 40 38 31 1.55281 20 2900 21 2642 19 3242
9495 3.2396 -2.61716 -2.57614 152 126 68 2.63896 20 3024 21 2711 19 3238
9493 2.00077 -2.0801 -1.99756 144 96 34 0.575317 20 2672 22 3265 19 3223
9492 1.86036 -2.2876 -1.9386 9 9 6 0.767628 20 2868 21 2514 22 3251 23 4265 42 3751 19 3210
9491 2.18854 -2.31106 -2.01514 191 176 141 1.18457 20 2656 21 2527 22 3423 19 3209
9490 2.18724 -2.30985 -1.9557 192 178 141 1.70989 22 3416 42 3623 19 3208 21 2372
9489 1.75773 -2.31879 -1.80105 110 62 18 1.65265 20 2326 23 4029 19 3202
9488 1.75836 -2.32994 -1.80351 117 67 20 1.62506 20 2327 23 4028 42 3617 19 3201 21 2092
9487 5.35201 -2.99065 -2.38115 63 60 46 0.300271 20 2855 19 3196
9486 2.18999 -2.32223 -1.83918 155 140 104 0.42954 20 2852 19 3192
9485 2.82545 -2.67602 -1.76282 193 168 124 0.475824 20 2617 21 2483 42 3722 19 3186
9484 2.82545 -2.67602 -1.76282 193 168 124 0.475824 20 2616 21 2482 42 3723 19 3185
9483 2.93364 -2.63303 -1.7576 179 162 129 0.0229473 20 2845 19 3183
9482 1.89861 -2.52037 -1.65238 36 23 12 0.785772 20 2835 19 3174 21 2475
9481 3.36904 -3.12527 -1.70365 32 28 22 1.13502 20 2596 19 3173
9480 2.19171 -2.30711 -1.50761 213 199 156 0.584578 20 2587 21 2466 22 3342 19 3170 42 3698
9479 1.83207 -2.40806 -1.45712 67 40 19 0.611842 21 2270 22 3184 19 3168
9478 1.72402 -2.27075 -2.57539 69 42 14 1.95883 20 2530 19 3132
9477 1.59365 -2.42094 -2.38991 166 138 79 0.868585 19 3111 23 3935
9476 1.759 -2.28081 -2.3619 4 4 2 1.36626 20 2474 21 2415 22 3126 23 4087 42 3678 19 3108
9475 1.75869 -2.27596 -2.35964 4 5 2 0.825687 20 2473 21 2416 22 3127 19 3107 23 4088
9474 1.85754 -2.17687 -2.29715 93 50 15 0.907312 20 2731 21 2411 22 3292 42 3659 19 3088
9473 1.75668 -2.33287 -2.21804 93 50 15 1.10108 20 2708 21 2405 22 3116 23 4204 42 3653 19 3082
9472 2.08289 -2.18422 -2.29827 109 64 21 0.88315 22 3124 19 3081 20 2451
9471 3.18044 -2.64804 -2.61512 27 24 20 0.791698 20 2728 21 2546 19 3077
9470 1.83955 -2.43624 -2.17407 46 26 12 1.23913 22 3107 23 4076 19 3063 21 2156 42 3494
9469 3.3066 -2.86718 -2.63186 146 113 55 0.49529 20 2887 21 2638
9468 3.21713 -2.8096 -2.56738 157 142 105 2.52187 20 2706 21 2401 19 3058
9466 1.83892 -2.43313 -2.14334 43 24 10 1.15109 20 2406 22 3106 23 4075 19 3047 21 1855
9465 1.86937 -2.47192 -2.13892 39 22 9 1.23128 22 2827 23 4074 19 3046
9464 1.84358 -2.45438 -2.10646 34 20 8 0.663043 20 2389 23 4067
9463 2.00069 -2.0834 -2.09691 144 97 31 1.80922 20 2405 21 1869 22 2886 23 4085 42 2967 19 3044
9462 2.10307 -2.21002 -2.07738 109 63 21 1.75058 20 2671 21 2145 19 3043 23 4201
9461 2.54218 -0.565264 -1.84855 170 153 118 0.49679 20 2886 19 3041
9460 1.67972 -2.36212 -2.03167 72 58 38 2.20451 24 3929 19 3030 21 1857
9459 1.84038 -2.43846 -2.06988 46 25 11 0.338235 22 2829 19 3029 21 1854
9458 1.76746 -2.31453 -1.88112 113 72 21 1.58154 20 2349 24 3918 19 3011
9457 2.18842 -2.31506 -1.98319 184 169 133 1.15756 20 2655 21 2381 22 3417 42 3468 19 3010
9456 3.97636 -3.81905 -2.51511 70 57 31 3.26579 20 2650 21 2526 19 3005
9455 5.34515 -3.97827 -2.69141 50 45 35 1.85055 20 2647 19 3000 21 2628
9454 1.76066 -2.32893 -1.83315 117 71 22 0.617188 24 3997 19 2991
9453 1.7698 -2.34879 -1.85398 134 90 26 1.00846 20 2348 21 1805 22 2783 23 4040 24 4001 42 3461 19 2990
9452 2.32695 -2.30941 -1.92326 123 78 27 1.05973 20 2345 19 2989
9451 2.31142 -2.27593 -1.881 140 88 30 0.69585 20 2641 21 2505 22 3407 42 3737 19 2988
9450 2.4145 -2.21932 -1.92065 139 97 32 1.30785 20 2640 21 2370 22 3415 42 3610 19 2987
9449 2.51484 -2.14084 -1.91911 134 86 25 0.915321 20 2639 21 2369 42 3609 19 2986
9448 2.54378 -2.11542 -1.92168 123 79 26 0.0522669 20 2638 19 2985
9447 2.55119 -2.08964 -1.9029 70 39 14 2.62481 20 2636 42 3837 19 2984
9446 4.70005 -5.18401 -2.56648 50 42 24 0.939936 20 2337 19 2983
9445 1.7613 -2.33888 -1.7891 117 67 19 1.53552 23 4027 24 3903 19 2981 20 2325
9444 2.71306 -2.18177 -1.8031 136 89 35 0.933666 20 2629 19 2978
9443 2.65209 -2.79888 -1.76046 206 191 156 1.24532 20 2622 21 2320 22 3373 42 3594 19 2968
9442 2.65209 -2.79888 -1.76046 206 191 156 1.24532 20 2621 21 2321 22 3374 42 3595 19 2967
9441 2.7186 -2.7341 -1.78764 24 15 7 0.766334 20 2620 21 2484 22 3371 42 3724 19 2966
9440 2.72445 -2.74466 -1.73701 65 36 19 0.172882 20 2619 19 2965
9439 2.74827 -2.81368 -1.74457 79 46 24 2.23031 20 2618 22 3023 19 2964
9438 3.26794 -2.1223 -1.82623 50 49 40 0.189543 21 2326 19 2960
9437 5.70864 -4.41501 -2.21912 52 49 41 0.604939 20 2841 19 2959
9436 6.99659 -4.59389 -2.19375 49 44 37 3.29588 20 2607 19 2956
9435 1.97296 -2.13676 -1.59698 41 32 17 0.740753 20 2599 21 2293 22 3191 19 2953
9434 2.66578 -2.82754 -1.71621 206 189 153 1.88948 20 2598 21 2319 42 3580 19 2952
9433 1.71654 -4.22322 -1.62094 185 158 87 1.04577 23 3803 19 2942 20 2284
9431 1.82924 -2.30868 -1.51528 131 120 84 2.18843 20 2590 21 2005 22 2986 23 3964 19 2940 42 3565
9430 1.82883 -2.30537 -1.51585 134 121 84 1.47312 20 2589 21 2006 22 2987 23 3965 19 2939
9429 1.80577 -2.27381 -1.49068 142 97 31 1.0544 20 2282 19 2938
9428 1.89325 -2.26132 -1.52422 11 10 8 1.86012 20 2280 21 2000 22 2985 23 4115 42 3699 19 2937
9427 5.74502 -3.79802 -1.761 22 19 17 0.590244 21 2471 19 2928
9426 4.21762 -2.28056 -1.57849 167 156 120 0.25442 20 2584 19 2927
9424 1.77406 -2.3206 -1.38007 169 119 39 0.770395 20 2265 24 3955 19 2924
9423 3.20565 -3.07146 -1.28377 199 187 151 2.39834 20 2579 19 2923 21 2253
9422 2.98109 -2.97232 -0.424731 205 191 154 0.135741 21 2230 19 2902 20 2568
9421 3.21918 -3.11858 -0.468075 145 132 88 0.549163 21 2443 19 2901 20 2567
9419 2.85195 -3.0633 -0.406432 130 112 60 0.468587 21 2442 19 2892 20 2564
9418 2.92312 -2.99812 -0.407088 152 135 84 0.400781 21 2232 19 2891 20 2562 22 3152
9417 2.92312 -2.99812 -0.407088 152 135 84 0.400781 21 2231 19 2890 20 2563 22 3153
9416 1.75676 -2.2684 -2.52496 11 10 6 0.990125 21 2209 22 2921 19 2859
9415 2.55786 -2.08682 -2.63783 64 38 15 1.41566 21 2569 42 3781 21 2646
9414 1.67803 -2.33755 -2.36789 131 113 70 1.1587 21 1910 42 3313 19 2826 20 2127 22 2912
9413 1.78335 -2.22734 -2.41494 6 5 3 1.1144 20 2501 19 2825
9412 1.78277 -2.25859 -2.39361 17 15 11 0.612773 20 2126 21 1909 22 2916 23 3939 19 2824
9411 1.7549 -2.27592 -2.34058 12 10 6 0.857199 21 2193 42 3672 19 2805
9409 1.92789 -0.407868 -1.78006 63 41 18 0.292305 20 1648 19 2802
9407 1.80543 -2.39919 -2.2577 47 27 10 1.18668 20 2024 42 2997 19 2789
9406 1.93282 -2.19583 -2.29003 56 32 13 2.05511 23 4210 42 3658 20 871
9405 1.88478 -2.42369 -2.29376 50 28 12 2.52569 22 3287 19 2787 21 2402 42 3776
9404 2.55294 -2.11199 -2.37129 118 72 22 0.946172 21 2555 42 3643 19 2785 20 2450
9403 3.72592 -2.68568 -2.59802 183 167 126 0.714975 20 2418 21 2399 42 3246 19 2765
9402 1.76125 -2.33632 -2.07895 60 31 10 1.4439 20 1986 21 1467 23 3918 42 3281 19 2742 24 4013
9401 1.99872 -2.07676 -2.05335 153 105 35 1.05359 21 2146 22 3105 19 2741 42 3268
9400 3.7924 -2.64142 -2.52002 81 74 51 1.09567 20 2399 21 2398 42 3224 19 2734
9398 1.76168 -2.33269 -1.94481 40 24 10 2.04312 22 1853 23 3895 42 3253 20 622 20 1955
9396 2.91256 -2.43263 -2.10547 101 58 21 1.42929 20 1948 19 2700
9395 1.73947 -2.30635 -1.85248 119 67 19 0.571349 20 1933 21 1381 22 2410 23 3885 24 3914 42 3230 19 2688
9394 1.76191 -2.33591 -1.82893 119 69 20 1.08937 21 1379 22 2409 23 3884 19 2687 20 1932 42 3217
9393 1.77274 -2.35105 -1.83465 146 102 35 1.45005 22 2408 23 3597 24 3909 42 3216 19 2686
9391 2.18681 -2.31558 -1.89606 167 154 119 1.26523 20 1930 21 2371 22 3085 19 2683
9390 2.17319 -2.30977 -1.87886 145 100 36 0.74093 20 2347 19 2682
9387 2.38342 -2.24194 -1.9182 147 101 32 1.10849 21 2115 22 3250 42 3450 19 2678
9386 2.3493 -2.25651 -1.88787 141 88 29 0.297268 21 2353 42 3611 19 2677
9385 2.45007 -2.19115 -1.9175 139 98 33 0.724213 20 2344 21 2112 22 3256 42 3445 19 2676
9384 2.45903 -2.18307 -1.90375 85 48 17 0.626496 20 2343 21 2111 22 3088 42 3444 19 2674
9383 2.51816 -2.08709 -1.88365 137 86 30 1.78106 21 1419 19 2673
9380 2.3123 -2.28057 -1.83503 137 80 24 0.681261 21 2090 22 3054 42 3430 19 2661
9379 2.5502 -2.083 -1.81529 70 37 14 1.30153 20 1910 21 2089 42 3602 19 2658
9378 2.61968 -2.11013 -1.80805 141 89 28 2.06245 20 2322 19 2657 21 2060
9377 2.78585 -2.27717 -1.86414 130 79 31 0.450635 20 1907 19 2654
9376 6.40007 -4.33446 -2.47277 51 48 37 1.05194 21 2347 19 2647
9375 1.79813 -2.37759 -1.64646 51 30 12 1.09743 20 1868 22 2712 19 2644
9374 2.64481 -2.80684 -1.78469 26 22 14 1.7507 20 2314 22 2734 19 2642 42 2794
9373 2.64743 -2.81356 -1.78489 28 23 16 1.18464 20 2313 22 2733 19 2641
9372 2.67328 -2.86296 -1.74377 93 75 54 1.39873 20 2312 22 3473 19 2640
9371 2.84647 -2.68575 -1.74198 51 29 15 0.532206 20 2614 21 2317 22 3214 42 3394 19 2639
9370 2.84647 -2.68575 -1.74198 51 29 15 0.532206 20 2615 21 2318 22 3213 19 2638 42 3393
9369 4.85793 -4.95908 -2.20772 19 19 14 0.900605 21 2328 19 2623
9367 1.68192 -4.24282 -1.67099 198 170 90 0.636364 21 1704 19 2615 20 1872 33 5269
9366 1.71452 -2.25743 -1.62317 99 55 20 2.44531 22 2294 24 3971 19 2614
9363 1.83351 -2.2252 -1.56352 34 32 27 0.790324 20 1832 21 2004 22 2996 23 3970 19 2611 42 3572
9362 1.93787 -2.18873 -1.59478 9 9 6 2.4611 22 2995 19 2610 20 1866
9360 1.98353 -2.10454 -1.61101 134 85 27 0.888202 20 2294 21 2294 22 3201 42 3712 19 2608
9359 2.22863 -2.52836 -1.59653 173 142 85 0.29008 20 1271 19 2607
9358 2.8192 -2.85305 -1.68934 183 154 105 0.514704 20 1860 19 2605
9357 1.74325 -2.30826 -1.54339 136 78 19 0.962369 20 1834 21 1163 23 3468 24 3835 42 3145 19 2592
9356 1.91013 -2.45503 -1.51196 55 42 27 2.76749 20 2279 19 2587
9355 4.20506 -2.29899 -1.59047 208 198 162 1.26566 20 2585 21 2584 19 2577
9352 2.1781 -2.31032 -1.43235 217 175 99 1.07536 21 1992 42 3111
9351 2.19 -2.31104 -1.41119 215 199 156 0.834529 20 1812 21 1652 19 2562
9350 3.19203 -3.04082 -1.49938 187 174 136 0.43909 20 2268 19 2561
9348 2.17708 -2.30575 -1.36624 203 158 79 0.528001 20 1799 19 2551
9347 3.20627 -3.0673 -1.3588 198 188 153 1.47136 20 1798 21 1976 19 2550 42 3109
9346 1.7326 -2.29112 -1.28897 203 156 70 1.8545 24 3803 19 2543 47 3704
9345 1.9171 -2.52291 -1.27668 114 85 43 1.68982 21 1972 19 2541 42 3338
9344 2.08323 -2.23872 -1.24609 242 237 207 2.69854 21 160 19 2540
9343 2.95732 -2.99783 -1.04842 218 207 168 0.632253 20 2259 21 2247 19 2533
9342 3.21014 -3.07847 -0.778849 190 178 144 0.471815 21 2245 19 2519 20 2252
9341 2.85856 -3.02837 -0.4852 217 205 166 2.41279 21 2235 19 2507 20 2237 22 3314
9340 2.83687 -3.03741 -0.393439 205 194 154 0.949907 21 2233 19 2501 20 2234
9339 1.78345 -2.25467 -2.4589 6 6 3 0.856062 20 2153 21 1569 19 2442
9338 1.8014 -2.23983 -2.43757 11 10 7 1.50423 20 2151 21 2201 22 3136 19 2441 42 3683
9336 1.80395 -2.23768 -2.35519 13 11 7 0.833466 20 2125 21 2192 22 2915 23 3937 42 3521 19 2412
9335 2.5605 -2.08669 -2.50569 59 32 11 1.06551 21 2203 42 3509 19 2404
9334 1.72762 -2.28683 -2.31176 51 28 11 0.758927 20 1565 22 2107 19 2384 23 3348
9333 1.72792 -2.29252 -2.31417 51 28 10 1.23815 20 1564 22 2106 23 3347 42 2534 19 2383
9332 1.75483 -2.26944 -2.30385 89 49 14 0.315092 20 2071 19 2382 22 2909
9331 2.52853 -2.12744 -2.50866 107 61 21 0.387192 42 2995 19 2377 21 1913
9330 1.73959 -2.30875 -2.26932 78 42 13 0.816669 20 1559 21 847 23 3733 42 3012 19 2361
9329 1.76984 -2.34233 -2.28064 118 71 20 2.01657 20 1558 22 2090 23 3732 19 2359 21 844
9328 1.79332 -2.37777 -2.24319 106 65 21 0.531105 20 1495 22 2546 23 3727 42 2998 19 2356 21 1496
9327 3.23117 -2.4406 -2.60443 23 22 17 1.17987 20 2062 21 2186 19 2354
9326 3.34473 -2.54331 -2.621 40 38 31 2.04469 20 2058 21 2178 19 2352
9324 3.3868 -2.91283 -2.65048 133 106 56 0.380321 20 2019 19 2330 21 2165
9323 3.68623 -2.68982 -2.59506 180 162 122 0.476399 20 2018 21 2163 19 2329
9322 2.47215 -0.61526 -1.89213 133 112 70 0.6768 20 2442 19 2325
9321 1.74182 -2.31425 -2.09587 110 59 18 1.33724 21 750 22 2003 23 3307 19 2303
9320 1.74182 -2.31425 -2.09587 110 59 18 1.33724 21 749 22 2004 23 3308 19 2302
9319 1.69215 -2.39461 -2.07825 57 43 24 1.57283 20 719 24 3783 19 2301
9318 1.73782 -2.3064 -1.99856 52 27 9 0.635958 20 671 24 3628 19 2275
9317 1.88249 -2.29771 -1.92234 19 19 15 0.547572 20 1954 19 2263 21 1835
9316 1.93213 -2.32844 -1.95119 41 26 13 0.690765 20 1952 19 2262 21 2122
9315 4.10081 -3.9621 -2.53676 39 31 17 0.362677 20 1406 19 2255
9313 1.78227 -2.35754 -1.83482 118 74 24 0.586367 22 2407 23 3596 19 2239
9312 2.00488 -2.08353 -1.87309 126 78 25 1.3744 20 1378 23 3656 19 2237
9309 2.54507 -2.08402 -1.88696 124 74 27 2.3061 20 1925 21 1417 19 2232 20 544
9308 5.42708 -2.89089 -2.34482 43 39 27 0.949565 20 1915 19 2222
9307 1.72034 -2.28852 -1.78449 93 46 14 1.44126 23 3106 24 3746 19 2220 22 1749 42 3458
9306 2.72869 -2.21217 -1.86397 126 72 26 0.300589 20 1909 19 2215
9305 1.80922 -2.39357 -1.67487 40 23 10 1.65653 20 424 22 296 42 2814 19 2196
9304 1.87559 -2.47809 -1.73117 28 19 11 1.39575 21 408 22 1677 19 2195
9303 2.61846 -2.79138 -1.78008 206 184 146 0.638451 20 1888 21 2040 22 3024 19 2193
9302 2.85267 -2.67339 -1.78896 17 14 10 0.6373 20 1886 21 1732 22 2729 42 2790 19 2191
9300 5.69439 -4.28348 -2.04125 49 43 36 1.10604 20 397 21 1721 19 2173
9299 5.1707 -1.44251 -1.82805 136 117 77 0.294205 20 2297 19 2165
9298 1.84485 -2.43883 -1.63769 37 23 11 1.9253 21 1185 19 2160 22 1604
9297 1.87242 -2.22382 -1.56739 39 38 33 0.793541 23 3813 19 2158
9295 1.88941 -2.12673 -1.6003 116 74 22 0.8459 23 703 19 2155
9294 1.93985 -2.18009 -1.5818 227 140 17 1.26651 20 1275 21 1700 22 2694 23 3987 42 3396 19 2154
9293 1.99235 -2.07816 -1.60967 128 80 27 1.29213 21 2020 22 3014 42 3581 19 2153
9291 1.98408 -2.0934 -1.59579 11 11 6 2.37483 20 1864 23 4126 19 2151
9290 2.19115 -2.34232 -1.66378 190 161 104 0.352177 21 401 19 2150
9289 2.75689 -2.69295 -1.72369 195 171 127 0.493118 20 1861 21 2038 42 3395 19 2149 22 3013
9288 2.80081 -2.6621 -1.72307 177 153 111 0.141003 20 1858 21 1734 42 3151 19 2147
9287 1.76702 -2.34194 -1.54163 150 103 33 2.1471 20 1249 23 3802 24 3671 19 2138 42 3144
9286 1.79659 -2.2633 -1.55667 40 39 32 1.8596 21 1162 23 3465 19 2137
9285 1.81278 -2.27139 -1.54701 37 37 31 1.52568 22 2253 42 3378 19 2136
9284 1.7803 -2.36189 -1.51352 90 52 16 1.02224 21 1683 22 2684 42 3362 23 3801
9283 1.83976 -2.23411 -1.54033 44 43 35 0.537583 20 1830 21 1681 22 2682 23 3814 19 2133 42 3571
9282 1.92385 -2.30093 -1.5181 65 51 31 0.78469 20 1827 23 3796 19 2130
9281 1.93456 -2.29759 -1.51653 9 10 7 1.41205 20 1826 21 1677 22 2680 23 3795 19 2129 42 3562
9280 5.92712 -3.82848 -1.7775 32 32 27 1.66576 21 1685 19 2116
9279 1.75185 -2.31512 -1.44739 185 139 56 1.30079 23 2921 24 3663 19 2111
9278 1.77109 -2.34005 -1.42856 190 142 55 0.595993 21 239 22 1539 23 2918 19 2110
9277 1.77154 -2.34258 -1.42843 185 138 53 0.697054 20 1224 21 238 22 1538 23 2917 24 3661 19 2109
9276 2.17649 -2.30007 -1.49106 198 153 78 0.305504 20 1222 19 2107 22 2244
9275 1.71145 -2.28505 -1.33659 207 188 154 2.14947 21 1077 22 1506 19 2098
9274 1.73017 -2.29053 -1.37158 180 129 45 0.946664 20 272 21 217 22 1525 23 3438 24 3658 19 2097 42 3104
9273 1.77348 -2.34568 -1.39941 185 138 52 0.829566 20 1208 21 219 22 1523 23 2915 42 2693
9272 1.77348 -2.34568 -1.39941 185 138 52 0.829566 20 1209 21 218 22 1524 23 2916 42 2694
9270 2.1783 -2.2997 -1.2967 228 184 98 1.7141 20 1191 21 177 19 2085 22 2219
9269 2.17628 -2.29968 -1.26469 206 155 72 0.884328 20 1190 19 2084
9268 2.17552 -2.29618 -1.26412 220 174 90 1.32966 20 1189 19 2083 22 1477
9267 3.43036 -2.54182 -1.18356 40 38 32 1.65908 21 1056 19 2081
9265 2.88681 -3.00559 -0.544996 211 199 161 0.71299 21 1948 19 2046 20 1768
9264 2.84912 -3.07817 -0.418032 201 188 148 0.977106 21 1598 19 2045 20 1763 22 2633
9263 2.9634 -3.05271 -0.405533 213 200 162 1.92179 21 1943 19 2044
9260 2.56494 -2.07484 -2.607 113 66 19 0.772683 42 2496 19 1947
9258 1.73403 -2.2938 -2.4213 11 9 6 1.0396 20 1017 21 919 22 2123 23 3362 42 3050 19 1902
9257 1.73427 -2.29493 -2.40605 12 11 6 0.50684 20 1016 21 894 22 1267 23 2801 19 1901
9256 1.73476 -2.30077 -2.39031 12 10 4 0.438887 23 2797 42 2580 19 1900
9255 1.83895 -2.15752 -2.36818 7 7 5 0.356651 20 2124 22 1308
9254 1.89017 -2.17696 -2.39325 2 2 1 0.321405 21 1563 19 1894 22 2126
9253 1.87173 -2.26873 -2.39692 31 27 20 0.959512 20 947 21 889 22 1256 19 1893 42 2526
9252 1.86942 -1.76607 -2.2412 18 16 12 1.31123 22 1331 19 1892
9250 1.69569 -2.56368 -2.35048 174 165 122 1.44171 20 1567 22 2578 23 3730 19 1848 21 1522 42 3518
9249 1.72652 -2.28845 -2.28839 62 35 13 1.11562 20 1563 23 3338 42 2532 19 1847
9246 1.83293 -2.22463 -2.34607 91 66 34 0.912105 20 1618 22 2595 23 3744 42 3020 19 1842
9245 2.53939 -2.12023 -2.50954 108 64 21 0.388998 21 1559 42 2994 19 1831
9244 1.7365 -2.30427 -2.24725 108 62 18 0.47171 20 874 22 1210 23 2765 42 2508 19 1809
9243 1.726 -2.29179 -2.21146 84 45 14 1.30809 23 2762 19 1807 42 2484
9242 1.74658 -2.31627 -2.27125 96 52 16 0.539399 20 873 23 3334 42 2510 19 1804
9241 1.77888 -2.36212 -2.2496 89 49 14 1.14069 20 793 22 1139 23 2761 19 1803
9240 2.07846 -2.17936 -2.30534 106 63 18 0.948952 22 1245 19 1802 20 869
9239 2.07846 -2.17936 -2.30534 106 63 18 0.948952 22 1244 19 1801 20 868
9238 3.26342 -2.41689 -2.62268 25 24 19 1.26002 20 1549 21 1904 42 2941 19 1787
9237 3.35389 -2.48895 -2.61225 38 36 29 0.517521 20 1548 21 1532 19 1786
9235 1.85229 -2.44863 -2.1737 42 24 10 0.323862 23 3306 19 1751
9234 1.99681 -2.07737 -2.13478 138 91 31 0.0634098 42 1078 19 1749
9233 2.55691 -2.11925 -2.29317 122 77 24 2.11946 21 2548 19 1747
9232 3.22032 -2.83026 -2.54048 145 131 93 0.325295 20 787 19 1745
9231 3.23036 -2.53055 -2.52901 148 120 61 3.03347 20 786 19 1743
9230 1.73398 -2.30144 -2.09764 94 54 15 0.979622 42 1082 19 1696
9229 1.72759 -2.2925 -2.09047 99 53 15 1.60597 22 1026 23 3310 24 3636 19 1695 20 717 42 2448
9228 1.74244 -2.31546 -2.07892 95 50 14 0.955207 23 2670 24 3416 19 1694
9227 1.74244 -2.31546 -2.07892 95 50 14 0.955207 23 2671 24 3415 19 1693
9226 2.18214 -2.31352 -2.19341 168 155 121 0.566926 22 2057 19 1688 20 716 21 775 42 1002
9224 2.55423 -2.11192 -2.16558 112 68 22 0.403068 20 1984 19 1685
9222 1.65276 -2.43957 -1.97958 74 58 35 0.559986 23 2534 19 1628 20 632
9221 1.72364 -2.28786 -1.96878 112 60 17 0.665623 20 630 21 712 22 1891 42 2935 19 1627
9218 2.45561 -0.2211 -1.718 187 174 137 0.32861 20 2008 19 1607
9217 1.72491 -2.28802 -1.94438 143 93 32 1.3021 20 1418 22 728 24 3027 42 927 19 1589 23 2532 23 3643
9216 1.83086 -2.2613 -1.88654 28 27 22 1.24558 20 1384 21 1427 22 2431 23 3622 19 1587 42 3227
9215 1.86939 -2.30549 -1.92529 4 5 2 1.36368 20 617 23 2526 19 1586
9214 1.87394 -2.28621 -1.89857 14 16 13 0.118074 20 562 19 1585
9213 1.87571 -2.30679 -1.90173 19 20 16 0.878357 20 563 19 1584 21 656
9212 2.04211 -2.13275 -1.92158 138 87 27 0.281927 22 812 23 3226 19 1581
9211 2.01335 -2.09435 -1.89524 142 97 32 1.89852 20 609 23 3227 19 1580
9210 1.72067 -2.28798 -1.85165 90 44 12 0.862004 20 571 21 582 22 639 23 2441 42 2892 19 1562 24 3346
9209 1.72058 -2.2897 -1.80733 105 57 19 0.653212 21 1380 22 1750 23 3107 24 3587 42 3462 19 1560 20 1350
9207 1.76462 -2.3437 -1.842 122 74 22 1.51643 23 3598 24 3586 19 1558
9205 1.87565 -2.29958 -1.87546 105 90 55 0.270903 20 560 23 3167 19 1556
9204 1.88549 -2.49265 -1.85219 37 24 12 1.20889 20 564 23 3137 42 2115 19 1555
9203 2.34371 -2.27086 -1.91596 136 91 28 0.663724 20 1377 21 1832 22 2806 42 3210 19 1552
9202 2.29205 -2.28625 -1.87864 139 90 31 0.629863 20 555 42 2848 19 1550
9201 2.3033 -2.28925 -1.86477 122 72 25 0.613674 20 1375 21 1372 42 2847 19 1549
9200 2.3278 -2.26704 -1.89133 119 68 22 0.0464544 20 1376 19 1548
9199 2.47897 -2.16467 -1.91332 137 93 30 0.945327 20 550 21 1422 22 2818 19 1546
9198 2.49113 -2.15965 -1.91495 128 83 27 0.383141 20 1373 21 1831 42 3207 19 1545
9197 2.5506 -2.09907 -1.86364 127 79 27 0.684699 20 1372 19 1544 42 3429
9196 2.58436 -2.05778 -1.91466 138 78 23 0.171668 21 646 42 2108 19 1543
9194 1.76523 -2.34024 -1.78342 114 65 19 0.680112 20 504 23 3105 24 3313 42 2117 19 1527
9193 1.87602 -2.47536 -1.75173 23 16 8 0.549386 20 425 22 416 23 3063 19 1526
9192 2.0294 -2.11338 -1.79681 135 85 27 1.47595 20 1348 22 628 23 3164 19 1525
9191 2.0294 -2.11338 -1.79681 135 85 27 1.47595 20 1349 22 627 23 3165 19 1524
9190 2.18454 -2.31053 -1.76 202 188 152 1.11916 21 1767 22 2762 42 3183 19 1523
9189 2.23853 -2.32894 -1.82862 197 183 147 1.15135 20 1346 21 1373 22 2781 19 1522
9188 2.2903 -2.286 -1.8172 141 90 31 0.579523 20 1345 42 3194 19 1521
9187 2.29804 -2.28783 -1.80054 89 49 17 0.511778 20 497 21 475 22 1740 19 1520
9186 2.31973 -2.42454 -1.79293 183 169 135 0.485781 20 494 19 1519
9185 2.3466 -2.47042 -1.79534 188 174 138 0.298933 20 1344 19 1518
9184 2.30978 -2.26631 -1.79807 119 73 24 1.03041 22 1738 19 1517 42 2040
9183 2.412 -2.24322 -1.83687 120 68 21 2.34399 42 3192 19 1516
9181 1.72192 -2.28648 -1.64342 105 55 17 0.947639 24 3529 19 1485 23 2984
9180 1.796 -2.37893 -1.72604 37 23 10 0.896388 20 428 23 3066 19 1484
9179 1.80923 -2.39591 -1.72548 44 27 12 1.339 20 426 21 409 22 417 23 3064 19 1483 42 2833
9178 1.87654 -2.48133 -1.71935 46 27 13 0.627078 20 1308 22 2327 23 3512 19 1482
9177 2.64818 -2.7327 -1.78091 101 68 35 0.874281 20 1304 21 396 22 2324 42 1934 19 1478
9176 2.965 -2.68078 -1.74368 171 149 113 0.0761641 20 418 19 1476
9175 3.69065 -2.68722 -1.8992 219 206 166 1.22385 20 1292 21 1754 19 1458 42 1920
9174 5.9146 -3.71583 -2.19032 30 17 15 1.14337 20 452 19 1451
9172 1.744 -2.30852 -1.56862 134 78 22 1.59089 20 369 23 2186 24 3500 19 1442
9171 1.79479 -2.37322 -1.62962 42 24 10 1.04152 22 294 19 1441
9170 1.78656 -2.2635 -1.5828 28 27 22 0.616837 20 1278 22 2270 23 3467 42 3397 19 1440
9169 1.85531 -2.23922 -1.61717 104 59 18 2.03435 20 365 19 1438 42 2796
9168 1.8742 -2.38418 -1.63459 36 22 10 3.50967 20 366 19 1437 22 1603
9167 1.89123 -2.23381 -1.58637 50 47 37 0.522522 22 1574 23 2982 42 2767 19 1436 21 328
9166 1.88743 -2.22657 -1.57564 46 44 38 0.728605 21 327 22 1573 42 2766 19 1435
9165 1.97256 -2.15399 -1.57521 98 39 9 0.878329 20 1274 21 1181 22 2692 23 3810 19 1432 42 3137
9164 2.00038 -2.0764 -1.56839 185 143 66 0.416065 20 1272 21 322 22 2263 23 3460 19 1431 42 2731
9163 2.08155 -2.17988 -1.62358 189 151 80 0.549374 20 355 22 1602 23 3511 19 1430
9161 4.88239 -5.00273 -1.90849 15 14 11 0.875108 21 1694 19 1412
9160 5.61977 -4.28879 -1.98363 57 48 40 2.46509 21 2030 19 1405
9159 1.7692 -2.3349 -1.55064 28 18 7 0.0051202 20 327 19 1402
9158 1.80718 -2.27778 -1.55371 112 107 90 1.46293 20 1246 21 1161 22 2255 23 3463 42 3143 19 1398
9157 1.83465 -2.2986 -1.52511 10 11 8 1.35471 20 324 23 3797 19 1395 21 1682
9156 1.86028 -2.245 -1.48781 14 13 11 1.25218 22 2246 42 3355 19 1393
9155 1.90582 -2.25067 -1.52983 141 120 55 0.936 20 1242 21 1150 22 1552 23 3453 19 1391 42 2716
9154 1.91223 -2.25155 -1.52568 10 10 6 0.454012 22 1551 23 3452 19 1390
9153 2.18658 -2.30973 -1.52532 206 194 159 0.409352 20 1239 22 2249 19 1386
9152 1.79759 -2.37488 -1.40488 59 33 12 0.277209 20 295 19 1362
9151 4.21592 -2.29505 -1.51685 171 160 127 0.44281 20 1806 21 1981 19 1352
9150 4.21855 -2.27575 -1.51595 172 161 129 0.0832664 20 1805 21 1980 19 1351
9149 1.73003 -2.28872 -1.35965 187 135 48 0.997006 20 270 22 1507 23 2889 24 3459 42 3100 19 1348 21 216 47 3535
9148 1.74049 -2.3031 -1.34177 191 142 57 1.48455 20 267 24 3458 19 1347 47 3638
9147 1.7967 -2.37035 -1.27947 34 23 12 2.09921 20 246 42 2670 19 1340
9146 1.91548 -2.52577 -1.27499 121 91 49 1.58842 20 244 22 2224 23 2879 42 115 19 1339
9145 1.882 -2.16345 -1.26192 148 96 32 0.69851 20 240 23 3415 19 1337 21 1066 22 1485 42 3334
9143 2.06923 -2.15843 -1.26315 209 159 79 0.646694 20 1192 23 3407 19 1334 22 1480
9142 2.1516 -2.26974 -1.2624 229 182 98 0.448499 21 159 19 1333
9141 1.7288 -2.66392 -1.13536 194 182 143 0.552195 24 3445 19 1322
9140 5.50435 -4.36158 -0.521792 222 232 185 0.00341463 20 1182 19 1320
9138 5.6513 -4.39898 -0.346753 216 202 183 1.09732 21 114 19 1309
9135 2.8623 -3.02101 -0.419038 204 192 152 0.951194 21 1595 19 1290 20 1159
9134 2.8787 -3.00024 -0.41928 209 198 160 1.18879 21 1021 19 1289 20 1158 22 2934
9133 2.89969 -2.98921 -0.423689 211 198 162 1.23302 21 1594 19 1288 20 1155 22 2931
9132 2.89939 -3.00943 -0.405352 154 137 83 0.618458 21 1592 19 1287 20 1156 22 2932
9131 2.89939 -3.00943 -0.405352 154 137 83 0.618458 21 1593 19 1286 20 1157 22 2933
9129 1.72888 -2.34297 -2.54629 106 66 21 2.09599 22 1357 19 1189
9128 1.74084 -2.28647 -2.57817 2 4 2 0.449814 42 2628 19 1185 22 1398
9127 1.75027 -2.2793 -2.56867 5 5 2 0.596786 22 1397 42 2627 19 1183
9126 1.74135 -2.28958 -2.55214 4 4 2 1.24646 22 1359 42 3060 19 1182 21 947
9125 1.74135 -2.28958 -2.55214 4 4 2 1.24646 22 1360 42 3061 19 1181 21 946
9124 1.74677 -2.28479 -2.54573 20 19 15 0.479382 22 1358 42 3057 19 1179
9123 1.7469 -2.28138 -2.53207 30 26 21 0.395822 22 1355 42 1522 19 1178
9122 2.34307 -0.123311 -1.90606 95 54 17 0.977303 20 1752 19 1164
9121 1.73391 -2.29691 -2.44958 16 13 8 0.00893834 22 1323 19 1125
9120 1.73383 -2.29692 -2.44273 14 11 6 0.398699 22 1322 42 2592 19 1124
9119 1.73401 -2.29578 -2.43306 17 13 9 0.453298 22 1270 23 1957 19 1123
9118 1.74677 -2.28362 -2.50603 27 24 19 1.30849 21 943 22 1350 19 1122
9117 1.74724 -2.28731 -2.50761 25 22 18 1.42794 21 942 22 1351 42 2601 19 1121
9116 1.74728 -2.28233 -2.46074 20 18 15 0.226601 21 921 42 2593 19 1119
9115 1.74199 -2.29249 -2.43486 6 6 4 1.20547 22 1320 19 1117
9114 2.38029 -0.212295 -1.90613 95 60 25 0.276586 20 1711 19 1108
9113 1.59779 -2.41362 -2.40737 145 118 57 2.50127 42 2595 19 1034 20 953
9112 1.74377 -2.29399 -2.40993 4 4 2 1.72979 21 893 23 3361 42 3041 19 1031
9111 1.74377 -2.29399 -2.40993 4 4 2 1.72979 21 892 23 3360 42 3042 19 1030
9110 1.74282 -2.2881 -2.39879 2 3 1 0.524614 22 1266 23 2800 42 3044 19 1029
9109 1.74282 -2.2881 -2.39879 2 3 1 0.524614 22 1265 23 2799 42 3043 19 1028
9108 1.79772 -2.24968 -2.39371 5 6 3 0.396188 22 2122 42 3037 19 1026
9107 1.74358 -2.28843 -2.38581 2 3 2 0.661855 22 1262 23 2793 42 2577 19 1025
9106 1.74366 -2.28904 -2.37227 3 3 1 0.906955 22 1259 23 1931 42 3040 19 1024
9105 1.74362 -2.28831 -2.37226 3 3 1 0.528414 22 1260 42 3039 19 1023
9104 1.74459 -2.28918 -2.35173 2 3 1 0.453507 22 1236 23 2781 42 2530 19 1022
9103 1.79782 -2.24921 -2.37835 6 6 4 0.700253 20 949 21 890 22 2120 42 3036 19 1021
9102 1.80692 -2.24078 -2.42404 4 5 2 1.42087 22 1317 19 1017
9101 1.83762 -2.21614 -2.40932 5 6 3 0.911183 21 915 22 2133 42 2568 19 1015
9100 1.82398 -2.22777 -2.38819 3 5 3 0.431144 22 1258 42 2566 19 1013
9099 1.82958 -2.22504 -2.37835 24 21 18 1.07823 22 2118 19 1012 42 2563
9098 1.81819 -2.2264 -2.35811 2 3 1 1.23893 23 2792 19 1011 42 2527
9097 1.86558 -2.19406 -2.40797 3 4 2 0.528052 22 1302 42 2558 19 1010
9096 1.89035 -2.17326 -2.40025 18 17 13 0.909382 21 1565 42 3034 19 1008 20 1012
9095 2.5553 -2.09263 -2.51516 144 98 33 0.560065 21 925 19 990 42 2993
9094 1.69818 -2.53299 -2.3567 161 152 112 1.33552 22 2579 23 3731 19 927 20 879 21 1521 42 3519
9093 1.71939 -2.2865 -2.28856 108 59 16 0.563314 22 1215 23 2771 42 2533 19 926
9092 1.78661 -2.23711 -2.30473 95 51 17 0.591731 22 1235 19 924 23 1899
9091 1.8024 -2.20714 -2.28633 97 55 20 2.52166 23 1896 19 922
9090 1.91354 -2.13513 -2.30363 82 47 17 0.583429 21 883 42 2502 19 919
9089 1.93277 -2.12136 -2.30417 74 43 17 0.327666 21 884 19 917 20 944
9088 1.92735 -2.12615 -2.29838 78 41 14 0.584884 21 881 22 2115 42 2501 19 916
9087 1.95634 -2.10123 -2.30403 87 50 18 0.630105 21 880 22 2114 42 2499 19 915
9086 1.98025 -2.08548 -2.28968 36 21 9 0.763232 21 1547 22 2594 19 914 20 870
9085 1.98236 -1.79758 -2.23111 124 103 72 1.20742 22 2919 19 913
9084 1.73708 -2.30478 -2.25595 100 55 17 0.333718 23 1874 19 876
9083 1.73708 -2.30478 -2.25595 100 55 17 0.333718 23 1875 19 875
9082 1.72025 -2.28396 -2.21665 105 58 17 1.44113 23 1873 19 874 42 2509
9081 1.80516 -2.37678 -2.23743 63 37 13 2.07815 23 2759 19 872 42 2482
9080 1.81361 -2.40976 -2.2692 66 37 13 0.703546 23 1869 19 871
9079 1.98079 -2.47736 -2.29442 45 36 24 0.935028 23 3328 19 869
9078 1.98514 -2.07908 -2.2276 100 58 19 0.140515 21 836 19 868
9076 3.1212 -2.49396 -2.63426 6 7 5 0.537589 21 1545 42 1071 19 852
9075 3.15113 -2.47138 -2.62489 43 40 32 0.765924 20 860 21 1544 42 1069 19 849
9074 3.16259 -2.48891 -2.60278 42 39 29 0.427005 20 1550 21 1540 42 2947 19 848
9071 1.76425 -2.34201 -2.16949 78 41 12 0.559735 23 1848 24 3427 42 1120 19 797
9069 1.76391 -2.34317 -2.14992 88 46 13 0.793749 23 2734 24 3426 42 2469 19 795
9068 2.25607 -2.32682 -2.24216 126 73 24 0.197639 22 1203 19 792
9065 3.73322 -2.70952 -2.62663 140 115 65 0.318326 20 781 21 1509
9064 1.67217 -2.3574 -2.0435 156 142 112 0.600121 22 915 23 1591 24 3060 42 2424 19 708
9063 1.67135 -2.3586 -2.03222 108 97 74 0.681662 22 834 23 1590 24 3059 42 2423 19 707
9062 1.72624 -2.2888 -2.07863 102 54 15 1.31238 22 912 23 2672 24 3417 42 2447 19 702
9061 1.76058 -2.3376 -2.11047 105 57 14 0.681451 23 1821 24 3423 42 1079 19 699
9059 1.99111 -2.07422 -2.0318 101 59 20 0.655612 23 3718 42 1003 19 696
9057 1.71816 -2.28829 -2.00224 74 38 15 0.351668 22 832 42 2956 19 584
9056 1.74349 -2.31396 -2.02641 63 32 10 0.901426 23 1567 24 3407 42 1005 19 583
9055 1.73476 -2.27869 -1.95813 99 54 17 0.761654 20 629 22 831 23 2531 42 2934 19 582
9054 1.73017 -2.27906 -1.94968 92 45 13 0.801091 20 628 21 710 23 2533 42 2367 19 581
9051 1.79953 -2.38527 -2.0288 30 19 7 0.431499 23 1562 42 922 19 577
9050 1.79953 -2.38527 -2.0288 30 19 7 0.431499 23 1563 42 923 19 576
9048 1.78277 -2.24256 -1.95106 103 54 17 0.588931 20 623 21 706 22 1889 23 3201 19 574 24 3394 42 2930
9047 1.91758 -2.13519 -1.95861 130 90 34 0.54172 20 616 21 700 22 1884 23 3280 42 2913 19 570
9046 1.93219 -2.12164 -1.95817 115 77 29 0.306522 20 614 42 2912 19 569
9045 1.94383 -2.11663 -1.95925 125 81 28 0.586702 21 699 22 1883 23 3278 42 2911 19 568 20 613
9044 1.99154 -2.07448 -1.98992 110 64 19 0.489588 21 746 22 1924 42 2360 19 567
9043 1.99079 -2.07492 -1.97608 99 58 18 0.572126 20 669 21 698 22 1923 19 566 42 2928
9041 1.99133 -2.0754 -1.9694 97 58 19 0.355835 21 697 42 2307 19 564
9040 2.17432 -2.30405 -2.07946 160 115 47 1.04143 22 1020 19 563
9039 2.32668 -0.971185 -1.83194 115 76 33 2.58185 18 1974 19 558
9037 1.69253 -0.917822 -1.69314 30 20 10 0.746089 20 620 19 532
9035 1.758 -2.32838 -1.906 119 73 23 0.713109 23 1311 24 2979 19 530
9033 2.01249 -2.50547 -1.95577 49 36 21 0.00207598 20 1379 19 519
9032 1.98802 -2.08147 -1.90779 94 55 19 0.97127 23 3657 42 2878 19 518
9031 1.98742 -2.07821 -1.89354 99 58 20 0.98459 20 610 21 1426 22 2457 19 517 23 3903
9030 1.9842 -2.08888 -1.87963 58 38 18 1.76282 22 1844 19 516
9029 2.3624 -1.18 -1.84555 140 98 48 1.18086 42 2296 19 512
9027 1.71537 -2.29257 -1.84931 90 46 14 0.569325 23 2440 24 3347 42 2893 19 486 21 584
9026 1.80431 -2.36017 -1.87201 3 5 2 2.43996 20 567 22 635 19 485
9024 1.85524 -2.31541 -1.87072 12 13 8 0.986192 42 2183 19 480
9023 2.19081 -2.32252 -1.84864 196 183 149 0.893643 21 1374 22 2406 19 476 42 3211
9022 2.3067 -2.28758 -1.91405 130 85 27 0.447662 20 554 22 2428 19 475
9021 2.35434 -2.26469 -1.91541 142 100 32 0.639752 22 2427 42 2114 19 473
9020 2.39516 -2.22951 -1.9147 139 94 32 0.632275 20 1374 21 1424 22 2804 19 472
9019 2.43849 -2.19844 -1.91377 136 91 29 0.757178 20 552 21 649 22 2455 42 2112 19 471
9018 2.46316 -2.16309 -1.89153 134 82 27 0.85431 20 548 21 648 42 2110 19 470
9016 2.53885 -2.12603 -1.91353 130 87 30 0.712696 20 545 19 468 42 608
9015 2.48964 -2.14576 -1.8913 129 82 31 0.809487 20 547 19 467 22 2454
9014 2.51273 -2.12399 -1.89035 138 89 31 0.712185 20 546 21 1420 42 3206 19 466 22 2816
9013 2.5499 -2.0902 -1.87193 124 75 28 0.130226 20 543 19 465
9012 1.72106 -2.28689 -1.76594 103 53 15 0.810525 21 485 22 524 23 2403 24 3314 42 2850 19 454
9011 1.78048 -2.35842 -1.7712 87 47 16 1.87422 23 1092 24 3312 19 452 47 3624
9010 1.98908 -2.08122 -1.76186 116 70 24 0.654868 21 483 22 1748 23 3594 42 2832 19 451
9008 2.31644 -2.26586 -1.80945 152 104 38 0.832722 20 493 21 474 22 621 42 2041 19 447
9007 2.30143 -2.28287 -1.80809 125 76 30 0.501562 21 476 22 1803 42 2043 19 446
9006 2.33065 -2.25142 -1.79772 120 75 30 0.329882 20 492 21 1308 19 445
9004 2.35937 -2.23069 -1.80754 136 92 33 0.395999 20 491 21 1307 22 2404 42 2827 19 442
9003 2.39381 -2.20529 -1.8079 123 80 33 0.672911 20 489 21 469 42 2037 19 441
9002 2.41862 -2.18626 -1.80664 127 82 29 0.481522 20 488 21 1304 22 2402 42 2826 19 438
9001 2.45845 -2.15408 -1.80663 133 88 35 0.701865 20 484 21 1302 22 2400 42 2824 19 436
9000 2.46617 -2.14905 -1.80599 121 79 33 0.270678 20 483 21 1301 42 2823 19 435
8999 2.46376 -2.15216 -1.79695 123 79 31 0.392177 20 482 21 467 22 2399 42 1986 19 434
8997 2.49879 -2.13654 -1.82963 136 86 29 0.517744 20 486 21 1370 22 2424 19 432
8996 2.4841 -2.13338 -1.80656 110 70 29 0.8863 20 481 22 1798 19 430
8995 2.49576 -2.12683 -1.79577 116 72 27 0.427055 21 466 42 1985 19 429
8994 2.50848 -2.11501 -1.8063 140 94 33 0.42026 20 1343 21 569 42 2809 19 428
8993 2.54719 -2.08346 -1.80461 124 79 28 0.674484 20 1342 21 1369 42 2808 19 427
8992 2.5861 -2.05647 -1.7953 138 86 24 0.0605117 20 475 21 1298
8991 2.81777 -2.30046 -1.87563 140 130 100 0.0362491 20 468 19 420
8990 3.69612 -2.70241 -1.98334 142 119 72 0.171747 20 458 21 1359 19 404 42 1972
8989 1.72145 -2.28671 -1.65372 94 49 16 0.588092 20 429 22 298 23 2297 24 3247 19 384 42 2815
8988 1.7938 -2.37432 -1.71874 70 41 15 1.03737 23 932 24 2794 42 557 19 383
8987 1.86712 -2.46162 -1.73267 38 23 11 1.27275 20 1309 23 2363 19 382
8986 2.21379 -2.29838 -1.68638 226 216 181 0.759229 22 1674 42 2795 19 378
8985 2.60468 -2.65088 -1.79048 142 101 50 1.37827 20 422 21 1737 19 377
8984 2.6601 -2.74592 -1.77348 197 180 145 0.4891 21 395 22 2323 42 1933 19 373
8983 2.67018 -2.73111 -1.78167 117 75 35 0.859212 20 420 21 394 22 404 19 372
8982 6.23912 -3.56344 -2.18063 65 58 46 1.853 21 440 19 343
8981 5.37453 -1.46464 -1.84373 127 108 66 2.57413 20 1282 19 337
8980 1.66761 -4.2433 -1.66665 240 222 145 0.303172 23 659 19 336 32 3570
8979 1.66761 -4.2433 -1.66665 240 222 145 0.303172 23 658 19 335 32 3571
8977 1.7298 -2.28688 -1.61994 81 40 13 0.900731 22 235 23 2241 24 3214 19 333 24 2717
8976 1.74521 -2.26302 -1.61314 109 60 18 0.504749 20 372 23 2983 19 331 21 334
8975 1.79389 -2.26216 -1.56815 44 42 35 0.923705 20 368 23 2953 19 330 21 1183
8974 1.84029 -2.22372 -1.5715 39 38 31 0.694794 20 361 21 1182 22 1576 42 3154 19 329
8973 1.84673 -2.2207 -1.57132 33 33 27 0.612938 20 360 21 329 22 1575 23 2951 42 2768 19 328
8972 1.89469 -2.15093 -1.61339 111 66 21 0.238941 42 2765 19 327
8971 1.90895 -2.2411 -1.57781 36 34 29 0.536734 23 2174 42 1874 19 325
8970 1.9453 -2.17722 -1.58136 158 68 10 0.947751 20 358 21 326 22 1572 42 2762 19 324 23 2981
8969 1.98924 -2.07995 -1.59441 120 75 25 0.541102 20 357 21 323 22 217 19 323
8968 1.98908 -2.07797 -1.5838 112 70 25 0.972351 20 356 23 3489 19 322
8967 2.18496 -2.30691 -1.627 192 176 139 0.0732749 20 354 19 321
8965 1.8252 -2.29504 -1.52595 136 125 89 0.211057 20 325 23 2149 19 289
8964 1.89406 -2.23915 -1.54333 169 160 128 1.35722 20 322 22 1554 23 2949 19 286 42 297
8963 1.89269 -2.23049 -1.54324 169 160 125 0.361428 20 321 22 1553 23 2948 19 285
8962 1.84384 -2.25985 -1.49361 29 29 23 0.704291 20 323 23 2930 19 284
8961 1.9327 -2.28662 -1.52716 77 62 38 1.26875 23 2926 19 279 22 189
8960 1.9327 -2.28662 -1.52716 77 62 38 1.26875 23 2927 19 278 22 190
8959 1.94781 -2.2922 -1.52015 73 57 34 0.871251 20 314 22 1545 23 2925 19 277
8958 2.07448 -2.17053 -1.56608 171 124 49 0.70126 23 2167 19 276
8957 3.17771 -3.09142 -1.64553 181 167 130 0.275742 20 312 19 274
8956 6.83244 -5.70015 -1.90019 44 42 33 0.710651 20 334 19 261
8955 4.19485 -2.27414 -1.55174 130 118 83 1.44422 20 300 21 2273 19 256
8954 1.71286 -2.29418 -1.47625 127 95 54 2.88844 22 181 19 252
8953 1.76 -2.32854 -1.44766 160 108 32 0.554232 22 175 23 2141 24 3157 42 2701 19 251
8952 1.7454 -2.30546 -1.4318 155 96 27 0.483957 22 174 19 250
8951 4.201 -2.2533 -1.53867 158 146 114 1.09496 21 1664 19 228
8950 1.72516 -2.28473 -1.34391 118 72 25 1.24922 23 544 19 224 24 1606 42 1719
8949 1.79109 -2.36552 -1.33207 41 25 13 0.673621 23 542 42 138 19 222
8947 1.72495 -2.28353 -1.32185 127 79 29 1.22989 22 145 23 2109 42 3098 19 213
8946 1.72473 -2.2885 -1.25915 143 93 36 1.46835 23 491 24 2580 19 212 47 1584
8945 1.77188 -2.28499 -1.25208 229 223 199 0.560555 20 245 22 129 24 215
8944 1.82479 -2.25437 -1.25136 226 215 180 0.0851148 20 242 21 163
8943 1.94243 -2.50749 -1.27521 123 93 48 0.180809 20 241 21 181 23 2878 19 202
8942 1.99737 -2.07484 -1.26252 166 122 50 1.25831 20 1194 23 3409 19 195 22 2664 42 3084
8940 2.1303 -2.2618 -1.25928 223 172 88 1.44768 21 158 19 189
8939 2.14769 -2.35561 -1.24586 233 220 176 0.679835 20 235 19 188
8938 5.42342 -4.76809 -0.861088 52 50 43 3.12079 21 150 19 152
8937 1.72859 -2.68206 -1.08278 205 194 156 1.31946 24 3116 19 145
8936 2.83277 -3.08589 -0.943974 235 226 190 0.577683 21 139 19 141
8934 3.19423 -3.11246 -0.48326 197 186 150 0.60853 21 89 19 106
8933 2.86738 -3.02976 -0.492462 223 211 172 0.0424087 21 90 19 102
8932 2.51197 -1.10958 -1.56774 30 26 20 2.49631 19 305 18 3030
8931 5.00872 -1.05215 -1.80172 162 152 118 0.235861 42 3984 18 2981
8930 2.67377 -0.841726 -2.14155 130 107 64 0.13255 42 3920 18 2874
8929 2.47281 -0.531841 -1.95153 162 148 112 0.739845 19 3403 20 3120 18 2776
8928 4.64206 -1.6865 -2.58564 85 52 19 2.75149 42 3748 18 2771
8927 2.50631 -0.545295 -1.88917 172 158 122 1.35422 19 3517 20 3192 18 2765
8926 4.95945 -1.14522 -1.81971 141 125 85 0.865938 42 3704 18 2732
8925 2.46118 -0.559938 -1.93009 139 123 84 0.799514 20 2930 18 2669 19 3073
8924 2.49347 -0.584506 -1.86529 158 144 106 0.985666 19 3236 20 3032 18 2638
8923 4.75756 -2.08864 -2.13201 80 77 62 0.443454 42 3597 18 2615
8922 2.46091 -1.18666 -1.62714 17 16 13 0.824458 20 411 18 2602
8920 4.57395 -1.74948 -0.428014 159 145 107 1.12889 19 2899 20 2809 18 2583
8918 4.65028 -1.67244 -0.406009 124 106 62 0.134798 19 3156 20 2807 18 2581
8917 3.02584 -1.28734 -2.22667 189 179 148 2.04703 42 3484 18 2548
8916 2.47249 -0.540402 -1.94331 120 100 61 0.729817 19 3247 20 2929 18 2536
8915 2.48337 -0.622315 -1.86699 128 110 70 1.14193 19 1736 20 2055 18 2513
8914 2.47154 -0.576525 -1.8945 171 157 122 0.932988 19 2761 20 2741 18 2512
8913 2.47877 -0.58691 -1.87813 178 165 130 0.134265 19 3053 20 2726 18 2511
8912 4.5289 -1.74855 -1.74331 184 172 140 0.42046 42 3369 18 2424
8911 4.99383 -1.39514 -1.72284 147 130 91 0.467865 42 3568 18 2420
8910 4.55919 -1.77543 -1.10715 183 173 142 1.21281 42 3336 18 2404
8909 4.34814 -2.17317 -2.65225 140 116 70 0.0534092 42 2905 18 2335
8908 2.46305 -0.53799 -1.96304 123 104 65 0.327116 19 2801 20 2755 18 2331
8907 2.45525 -0.56465 -1.94607 107 88 50 0.420994 19 2375 20 2491 18 2304
8906 2.46032 -0.598674 -1.9104 124 105 65 0.573268 19 2346 20 2468 18 2303
8905 2.46787 -0.568159 -1.90897 173 159 123 0.831273 19 2781 20 2467 18 2302
8904 2.45653 -0.553531 -1.94414 144 129 91 2.07327 19 2799 20 2756 18 2301
8902 2.46698 -0.614028 -1.89738 154 138 104 0.454218 20 2057 18 2262 19 2326
8901 4.60936 -1.73743 -0.42887 133 115 71 1.04772 19 2898 20 2561 18 2100
8900 4.68621 -1.62101 -0.409155 103 87 48 0.337627 19 2039 20 2232 18 2096
8899 4.68173 -1.59419 -0.421689 156 141 104 0.792791 19 2038 20 2230 18 2095
8898 4.68173 -1.59419 -0.421689 156 141 104 0.792791 19 2037 20 2231 18 2094
8897 2.67563 -0.877207 -2.26494 172 163 135 0.697052 42 3027 18 2080
8896 2.44026 -0.55342 -2.03123 108 88 55 0.135188 20 1689 18 2052
8895 2.45638 -0.530681 -2.00338 107 87 51 0.458044 19 2818 20 2520 18 2039
8894 3.0335 -0.969839 -2.19267 23 22 19 0.158774 42 2964 18 2023
8893 2.44823 -0.570427 -1.96276 102 81 45 0.806964 19 1825 20 2147 18 2018
8892 1.68157 -0.276023 -1.68063 92 56 22 1.27788 20 1045 18 1985
8891 4.26246 -1.92408 -2.2068 36 33 24 1.46436 4 1456 5 1558
8890 2.46075 -0.600236 -1.90344 161 147 112 1.08353 19 1740 20 2113 18 1969
8889 2.45182 -0.581771 -1.94067 112 91 55 0.387161 19 2351 20 2492 18 1968
8888 2.45896 -0.554158 -1.93721 113 94 57 0.663669 19 2347 20 2490 18 1967
8887 2.4811 -0.599361 -1.86709 175 160 125 0.613113 19 1734 20 2054 18 1939
8886 2.51419 -0.658169 -1.83317 194 182 147 1.05041 19 1676 20 1980 18 1898
8885 3.95627 -1.05495 -2.19056 128 110 67 0.791626 42 3218 18 1875
8884 2.55418 -0.696518 -1.81678 196 187 158 1.28058 42 3471 18 1871
8883 6.78583 0.409556 -1.74956 43 40 32 2.88129 1 1938 3 1851
8882 2.67724 -0.884321 -2.26918 138 126 94 0.607147 42 2540 18 1705
8881 2.45117 -0.532046 -2.01558 121 102 64 0.75103 19 1881 18 1591 20 2183
8880 2.44498 -0.55994 -1.98614 125 108 70 0.180191 20 1667 18 1573 19 987
8879 2.45166 -0.569043 -1.94819 133 116 76 0.417082 19 909 20 1641 18 1569
8878 2.45046 -0.547073 -1.98019 113 92 54 0.498771 19 1827 18 1568
8877 2.47004 -0.520065 -1.99037 134 118 78 1.03855 19 2398 20 2163 18 1567
8876 2.45392 -0.558118 -1.9486 151 137 99 0.674137 19 906 20 1642 18 1565
8875 2.45392 -0.558118 -1.9486 151 137 99 0.674137 19 907 20 1643 18 1564
8874 2.45781 -0.584636 -1.91701 125 106 69 0.678284 19 1782 20 2116 18 1505
8873 2.46011 -0.568002 -1.91955 153 139 103 0.741209 19 837 20 1613 18 1504
8872 2.46011 -0.568002 -1.91955 153 139 103 0.741209 19 838 20 1614 18 1503
8871 2.22339 -0.0517288 -1.90532 135 90 33 1.04452 19 2489 18 1458
8870 3.94538 -1.0704 -2.34341 163 150 115 0.0917642 42 2351 18 1428
8868 2.62516 -0.784698 -1.87384 179 172 141 1.39197 42 3256 18 1373
8867 2.51915 -0.658016 -1.82876 157 142 103 0.929076 20 1445 18 1370 19 553
8865 4.69869 -1.642 -0.414941 152 136 97 0.435164 19 97 20 1154 18 1067
8864 2.95957 -0.941654 -2.1597 22 22 18 2.40709 42 2440 18 686
8863 2.45254 -0.557594 -1.95357 109 88 51 0.43158 19 908 20 1644 18 676
8862 2.47684 -0.516075 -1.98592 132 116 78 0.452103 19 986 20 1665 18 675
8861 2.45277 -0.570425 -1.94145 133 118 79 0.566633 19 840 20 1640 18 616
8860 2.4547 -0.559008 -1.9444 110 93 56 0.455448 19 905 20 996 18 615
8859 2.50752 -0.51038 -1.93287 152 139 101 0.412376 19 833 20 1638 18 607
8858 2.6237 -0.802232 -1.93815 140 124 84 0.113606 42 2938 18 524
8857 3.96072 -1.06619 -2.35615 122 95 47 0.278609 42 903 18 521
8856 2.46451 -0.593285 -1.90026 170 158 123 0.651656 19 772 20 932 18 517
8855 2.46574 -0.59445 -1.89672 117 98 61 0.60389 19 771 20 1544 18 516
8854 2.47273 -0.562269 -1.90603 166 153 117 0.799775 19 834 20 1610 18 512
8853 2.47194 -0.558028 -1.90916 139 122 82 0.887067 19 835 20 1611 18 511
8852 2.4785 -0.596223 -1.87589 179 167 131 0.689813 19 770 20 1543 18 509
8851 2.51302 -0.649857 -1.8327 149 135 97 0.921894 20 698 18 422
8850 4.87972 -2.19487 -2.3901 35 31 23 1.5022 42 590 18 374
8849 2.96225 -0.944849 -1.8606 151 136 98 0.256199 42 2177 18 313
8848 4.11625 -1.22055 -2.08795 153 138 102 3.17979 42 2095 18 311
8847 4.65259 -1.68393 -0.415067 124 106 63 1.21927 19 1297 20 121 18 18
8846 4.8976 -1.35634 -0.365662 146 131 92 1.0155 19 82 20 111 18 14
8845 1.01912 0.528823 -2.64044 149 114 52 2.14642 55 6709 56 5938 17 2938 53 7106 54 14042 57 3700
8844 2.15635 0.925515 -1.78877 79 50 26 1.91786 29 2478 17 2929
8843 2.15635 0.925515 -1.78877 79 50 26 1.91786 29 2479 17 2928
8841 1.13639 0.190278 -2.63944 173 146 78 1.37607 55 6508 53 6900 56 5764
8840 0.112235 -0.155451 -2.46247 102 79 47 2.37563 29 2399 17 2870
8839 0.320868 -0.508925 -2.08406 72 46 23 0.120773 26 2977 17 2862
8838 0.0860861 -0.0679998 -1.7259 145 129 93 1.35456 29 2375 50 2031
8837 2.61397 1.54884 -1.43238 226 210 168 0.680003 56 5799 58 7113 17 2852
8836 0.476331 0.252627 -2.64495 112 73 28 1.69282 17 2844 51 2717
8835 0.478967 0.12703 -0.648668 91 54 23 1.34479 64 3098 17 2823
8834 0.305315 -0.477033 -2.13823 84 50 24 2.15066 29 2278 17 2811
8833 0.436091 0.0291897 -1.81749 144 101 48 2.21522 28 2232 17 2799
8832 0.525675 -0.39154 -1.77253 171 145 104 2.78001 27 2503 17 2798
8831 0.0497895 -0.279163 -2.07122 64 44 25 2.51336 27 2352 17 2746
8830 0.990742 0.745263 -1.66863 165 134 62 2.01153 28 2181 17 2731 16 2558
8828 0.521898 0.374379 -0.729203 119 97 64 1.35173 56 5587 57 3481 63 3763 64 2920 65 2907
8827 0.421697 -0.537177 -2.46454 104 59 21 1.42734 29 1974 17 2701
8826 2.31624 -0.246342 -2.04571 146 119 66 1.87194 29 1201 17 2689
8825 1.205 0.681329 -2.55848 191 174 133 1.58591 54 12941 63 3742 17 2673
8824 1.94434 -0.444089 -1.91193 33 21 12 0.521196 28 2145 17 2666 16 2402
8823 1.89455 -0.419479 -1.91685 63 38 17 0.430091 28 1924 17 2665
8822 1.15361 0.649475 -2.44035 116 68 23 0.736306 53 5697 54 12267 55 4929 56 4482 57 3121 58 6671 59 7226 63 3408 64 2781 65 2674 17 2663
8820 0.418405 -0.401547 -1.75809 119 64 23 1.10518 26 2810 27 2427 28 2015 29 2175 17 2632 65 2752 64 2853
8817 0.98502 0.757634 -1.59367 100 80 34 0.893516 28 2096 53 6116 54 12785 57 3238 17 2625 56 4857
8814 2.6392 1.49773 -0.807429 242 220 171 2.34556 29 2015 17 2604
8813 0.467435 0.121211 -0.740006 78 48 22 0.0971802 29 2145 17 2597
8807 0.533136 -0.467826 -1.79621 171 149 116 0.374919 28 1882 29 2035 17 2482
8806 0.536554 0.00457267 -1.70136 121 74 28 2.74871 57 3249 64 2037
8805 0.19026 -1.18645 -1.63141 49 45 33 1.1197 54 1589 64 1384 65 232
8804 -0.0110783 -0.196568 -1.73515 189 173 132 1.12208 26 2730 17 2469 27 2170
8803 -0.00385375 -0.220824 -1.63817 82 76 49 0.214801 51 2068 17 2467
8801 0.496693 0.179767 -0.981752 122 95 59 2.33936 27 2466 17 2456 64 1321 65 1220 63 1485
8800 0.036264 -0.289925 -0.869756 35 28 17 2.1026 28 1281 17 2450 16 1492
8799 0.139631 -0.398368 -2.63486 88 55 18 0.945872 27 2250 17 2428
