# 3D point list with one line of data per point:
#   POINT3D_ID, X, Y, Z, R, G, B, ERROR, TRACK[] as (IMAGE_ID, POINT2D_IDX)
# Number of points: 552, mean track length: 3.7099
3232 4.02424 -3.40903 1.54375 97 97 91 0.699406 4 10841 5 11008 21 10621 22 10495 23 10423 24 9578 25 8883 26 8116 3 9896
9008 4.28654 -0.24897 2.19023 26 29 24 0.291134 22 7600 24 1759
1491 -0.360959 -0.356599 1.88881 250 253 253 0.699222 3 7284 2 7621 20 7507
3272 1.02649 -1.02011 1.23978 188 163 131 1.28477 20 10479 21 10936 3 10109
10789 0.803392 -0.665834 2.65065 123 110 91 2.23143 21 9501 24 7123 26 4557 25 6654 4 9803 23 8820 5 9983
10750 -0.358185 -0.365283 1.88644 212 225 238 1.2021 20 10085 2 10209 22 9222 23 5788 21 10356
9928 -1.37351 -1.74378 1.04529 179 178 180 0.408823 30 10972 24 8114 25 3179
2411 0.99036 -0.234698 1.49373 123 148 72 0.533242 4 6572 20 5650 3 5679
10751 0.801754 -0.893279 2.53679 119 112 99 2.12258 23 10329 2 10522 20 10190 21 10546 22 10680
3234 2.68846 -1.10119 1.32968 110 104 96 0.58205 20 10256 21 10777 3 9903
9010 3.58055 -0.381991 2.09797 17 18 16 0.230283 23 5382 21 7358
1493 -0.352254 -0.372352 1.88395 244 248 250 0.230932 3 5668 20 7510 2 7623
9929 -1.37351 -1.74378 1.04529 179 178 180 0.408823 30 10973 24 8115 25 3180
2412 1.25753 -0.588473 1.43084 105 132 72 1.39198 5 8400 3 5684
10752 3.02592 0.704063 3.65472 56 67 24 1.51394 4 922 20 4221 3 880 21 4275 22 377 24 554
3235 3.32391 -2.56768 1.3414 106 106 103 1.72568 21 10630 22 10749 23 10433 3 9904
9011 3.52951 -0.0135371 2.06742 118 113 96 2.15683 20 7046 22 1969 21 7436
1494 -0.352254 -0.372352 1.88395 244 248 250 0.230932 3 5669 20 7511 2 7624
9930 -1.60914 -2.18562 1.09851 77 63 54 0.517605 25 3186 30 9658 24 8122
10753 3.16827 0.671044 3.56573 162 162 129 1.60273 20 203 24 647 21 6852 3 969 1 6869
3236 2.35697 -1.33257 1.33379 122 103 73 2.24974 4 11050 20 10363 21 10778 22 10758 23 10750 24 10066 3 9906 5 11201
9012 4.15875 -0.57409 1.91745 21 21 16 1.77739 3 5124 22 7680 21 7439 2 9309
1495 0.988175 -0.0496084 1.53011 152 140 124 1.27905 20 5645 3 2934 4 6558
9931 -1.64582 -2.36849 1.14059 166 160 162 0.131804 25 3105 24 8125
10754 3.11208 -1.2905 1.63973 56 60 31 1.08045 22 2341 23 2274 4 6212 5 6111 21 5520
3237 2.53399 -1.53272 1.35796 107 100 78 1.98534 22 10511 3 9907 5 11027
9013 3.2099 -1.56199 1.9712 40 35 30 1.70573 21 7442 25 5083 3 6947
1496 0.992577 -0.175697 1.49032 147 147 117 2.13068 3 7293 20 7485 21 7822 2 7629 22 5979
9932 -1.14639 0.115134 1.04044 86 86 86 0.896715 25 3287 24 8138
3277 3.17495 -0.493336 1.85799 59 56 46 0.737934 4 11251 20 10534 21 11023
10755 3.45499 -3.22258 4.12704 58 76 47 1.11569 4 961 22 289 3 4097 5 866 6 5416 23 392 7 8732
3238 3.09244 -2.5363 1.28794 163 158 150 3.03948 4 10866 5 11029 22 10504 23 9970 24 8853 25 7063 26 7041 3 9908
9014 4.16322 2.44276 1.88979 38 32 28 0.817752 2 5174 20 1463 22 7714 21 7484 3 2084
1497 1.15144 -0.205586 1.52234 147 142 120 0.680991 3 5612 20 7452 21 7791 2 7630 22 2682
9933 -1.13229 -0.0020314 1.0505 188 172 168 0.641098 25 5892 26 3143 24 8142
2416 1.88065 -0.894104 1.25847 197 174 150 0.806133 4 6581 5 6544 3 5691 22 2794
10756 2.62259 -1.65202 1.66444 76 83 46 0.862461 20 8541 21 5524 3 5398 23 5706 24 5579
3239 1.17552 -0.381635 1.5036 99 120 90 1.36399 20 10078 21 10636 3 9911
9015 3.66508 -1.50835 1.53987 48 42 31 1.94893 23 5699 24 7523 22 5665 26 5125
1498 1.20168 -0.214571 1.50419 69 59 41 0.922116 20 7453 21 7792 2 7631 3 7254
9934 -1.11819 -0.250105 1.00857 178 178 179 0.487321 25 5894 26 3146 24 8143
2417 2.01166 -1.06227 1.26372 210 181 152 0.545222 4 6518 5 3377 20 5663 21 2764 3 5694
3279 2.49077 -1.63077 1.40512 90 107 95 2.53805 22 11159 23 11222 24 10810 3 10155 25 10011
9016 3.49635 -1.70693 1.62613 93 95 82 1.09091 22 7813 23 7871 21 7591
1499 0.882394 -0.352719 1.57996 171 181 190 0.702957 3 5680 4 8302 20 5652 2 7632 22 2683
9935 -1.29398 -1.0998 0.999553 187 188 188 0.175314 25 3246 24 8145 26 3149
2418 2.23646 -1.31593 1.28798 181 157 137 0.513647 4 6432 6 7367 3 5695
3280 2.88434 -1.71086 1.32309 107 118 100 1.65825 5 11454 21 11026
10758 -5.22347 2.99339 0.606992 139 125 113 1.49921 27 2572 17 9212 18 8716 19 7662 28 5524
3241 1.34724 -0.784225 1.30376 109 138 88 3.02404 21 10785 3 9917
9017 2.49747 -1.72257 1.72278 84 96 47 0.927956 22 7814 23 5602 24 2138 21 7594
1500 0.863411 -0.356677 1.5848 161 172 185 2.09242 5 8396 20 5651 2 7633 21 7824
9936 -1.46407 -1.82927 1.04922 181 183 182 0.17809 30 9817 24 8147 25 3181
2419 2.17314 -1.28796 1.29126 170 136 113 0.316839 5 3237 6 7366 20 5664 21 2765 3 5696
10759 -5.37703 3.16241 0.613323 92 83 73 2.17956 27 7106 17 10325 18 9364 19 8666 28 8174
3242 0.813766 -0.774287 2.64462 84 71 54 1.2053 5 11259 3 9963
9937 -1.59563 -2.09035 1.08378 99 90 84 0.468662 25 3187 30 9708 24 8152
10760 -5.18731 2.9456 0.607017 178 173 164 2.23518 27 5422 17 10349 18 10021 19 9297 28 8201
9938 -1.63418 -2.17635 1.10142 143 120 96 1.39087 30 9660 24 8154 25 3192
2421 2.32079 -1.5808 1.26171 135 110 93 1.43234 4 6442 5 6407 3 5698 6 9368
3283 2.3859 -1.75959 1.01839 181 178 173 0.115372 22 11175 25 10029
10761 2.48867 0.809828 3.33062 32 34 17 2.16003 24 6937 26 6448 25 6472 4 8834 22 8688 2 6792 3 6455 20 6582 21 8445 23 7272 1 8344
9020 3.83115 -4.00594 1.36587 50 51 43 2.27833 22 9145 23 7887 24 7546
1503 -0.481165 -0.293511 1.88789 172 188 213 2.24069 3 7314 20 7543 2 7677
9939 -1.67034 -2.13289 1.08899 95 79 66 0.250348 25 5855 30 9709 24 8155 26 3070
2422 2.46011 -1.83172 1.2598 91 90 87 1.76956 20 7495 21 2665 3 5699
3284 1.91093 -1.67095 1.16013 181 175 165 0.146525 21 11027 4 11258
10762 2.47708 1.03887 3.50284 53 73 26 1.41234 24 6887 23 8672 22 8622 21 8378 25 7779 26 6387
3245 4.19445 -3.46141 2.16779 97 106 103 0.681421 4 11018 5 11164 21 10749 22 10710 23 10695 24 10336 25 9262 26 9179
3285 0.456761 -0.0276557 3.35853 114 132 137 2.28216 24 203 4 5
10763 -10.1642 5.24075 1.42133 167 156 140 1.8512 17 8663 16 10220 18 8162 19 8264
3246 4.32762 -3.46615 2.00362 60 68 66 1.60751 4 11021 5 11171 6 12589 21 10753 22 10917 23 10706 24 10342 25 9540 26 9497 3 9985
9022 1.00504 -0.0502856 1.53161 141 131 98 0.0276861 23 2529 21 7817
1505 1.20451 -0.426106 1.42795 95 99 60 2.65207 22 5982 2 7684
9941 -1.25052 -0.764453 0.995292 185 185 185 0.316285 25 5898 24 8177 26 3148
2424 2.28723 -1.79157 1.26468 50 47 37 0.286938 4 6449 5 3255 20 5673 21 2769 3 5701 6 7283
3286 4.10967 -5.5008 5.56545 117 130 134 0.121138 26 166 4 456
10764 4.85085 -4.3257 3.17296 57 77 36 2.24009 7 12865 24 9448 6 12347 22 10684 23 10322 5 10952
3247 4.89613 -4.08713 1.97615 92 112 93 2.08437 21 10603 24 10025 3 9986 22 10711
9023 -0.472209 -0.229407 1.9084 211 237 254 1.53573 22 2670 21 7854
9942 -1.61554 -1.87419 1.05864 140 136 132 0.331847 30 9781 24 8180 25 3251
2425 2.27412 -1.85278 1.23778 171 167 160 0.88011 4 6522 5 3258 20 5674 21 2772 3 5702 6 7288
10765 4.90902 -3.52704 4.25752 49 54 52 1.03309 22 10646 24 10281 25 9482 23 10632 3 9800
3248 2.44653 0.940491 1.90819 53 57 40 1.92057 4 11173 20 10349 3 9987
9024 0.907478 -0.873617 1.27914 115 152 73 0.647394 22 8074 23 6044
1507 2.24356 -1.01483 1.29153 217 205 193 0.855891 4 6427 5 6393 21 2763 2 7690 3 5622 20 5601
9943 -1.65069 -1.85296 1.05084 178 180 186 0.634748 30 9818 24 8181
2426 2.31678 -1.88433 1.25304 176 172 166 0.325141 4 6450 5 6413 20 5675 21 2773 3 5703 6 7284
3288 0.788693 -1.0243 3.12177 145 134 119 0.572907 5 609 4 713
10766 2.32995 -1.00315 1.35007 188 161 138 0.747386 22 5822 23 2541 21 5785 20 7457
9944 -1.69751 -1.93764 1.07645 152 154 155 0.466658 25 3254 24 8183
2427 2.29866 -1.92981 1.26444 158 156 155 0.7678 4 3632 5 3260 20 5677 21 2669 3 5704 6 7289
3289 2.592 1.03576 3.71883 182 180 141 0.566953 26 341 25 239
10767 0.825166 -0.561716 2.41068 81 68 48 1.7061 21 10187 24 7214 25 6748 3 9292 20 9642 22 9847 23 8919 2 10092
3250 3.9285 -2.8747 1.77257 151 147 143 1.45082 4 11028 5 10998 21 10755 22 10727 23 10715 24 10037 25 9277 26 8754 3 9995 21 10615
9026 0.156627 -0.596094 1.34083 163 175 179 0.953343 22 6251 21 8062 23 3078
9945 -1.7018 -1.9885 1.07769 181 179 173 0.805752 25 3255 30 9753 24 8184
2428 2.47293 -2.00109 1.25126 169 164 158 1.87824 5 8313 21 2668 22 5838 23 2561 3 5705 4 8277 6 10752
3290 2.76534 1.10298 3.72411 48 57 25 0.878553 20 107 4 795 3 754
10768 2.47975 -1.481 1.56762 62 64 50 1.2349 6 10661 5 8198 4 9332 21 8939 3 8964
3251 3.9285 -2.8747 1.77257 151 147 143 1.45082 4 11029 5 10999 22 10728 23 10716 24 10036 25 9276 26 8753 3 9996 21 10614 21 10756
9027 0.235955 -1.71954 1.11594 163 163 163 0.677516 22 3362 21 8112
1510 0.900694 -0.391227 1.43193 59 67 65 1.1354 20 7544 2 7725 21 7868
9958 -0.411004 -0.312324 1.8929 140 166 195 0.368466 25 5070 24 8773 26 1873
2441 2.13325 -2.37235 1.22731 161 158 156 0.303391 20 5739 3 5739 21 2777
10781 0.88361 -0.951272 1.24406 99 132 92 1.66837 4 11146 21 10793 3 10025 22 10534 23 9287 20 10373
3264 0.862505 -1.01772 1.17579 106 120 71 2.57529 5 11377 21 10890 3 10070 4 11194
9040 -0.0413444 -1.49272 1.07361 165 166 164 2.00375 22 8314 23 3331 21 8285
2894 1.66063 -1.12583 1.23738 216 186 147 1.13031 4 9441 5 9588 21 7837 22 5994 23 2687 3 8342
10411 -7.99143 -4.75236 1.33559 39 54 29 0.910017 13 5536 14 3995 29 7703 11 8429 12 9657 10 7829
10372 -9.77411 5.39343 1.91982 104 95 75 0.992522 19 4628 28 1033 17 991 16 967
9959 3.01831 -1.10245 1.72299 74 98 78 1.80311 25 8143 26 6934 24 8779
2442 1.05903 -0.620816 1.32845 40 39 32 1.66969 4 4013 20 2700 3 5765 5 6669
3304 2.52064 0.774822 3.38393 95 105 48 0.0162432 20 285 21 399 4 1044
10782 -6.643 4.2577 0.56118 153 119 68 0.682841 27 9827 18 9968 19 9644 28 9540
9041 -0.0327064 -1.49619 1.06715 162 163 163 1.60287 22 8315 21 8286
1524 0.300772 -0.202341 1.39592 68 62 56 1.00087 3 7463 20 7644 2 7862
2895 1.93146 -1.35186 1.25127 140 105 76 0.752638 4 8315 5 8359 6 10790 20 8660 21 7803 22 7951 3 8343
10412 -8.12474 -4.71013 2.39597 58 57 49 1.29293 12 9430 29 9819 13 5317 11 8131 10 7525
10373 -9.33276 4.95139 0.944882 120 129 79 2.31177 17 10710 16 11418 18 10108 28 9709
9960 2.06296 -1.39717 1.27499 187 162 152 0.450843 25 7120 26 7037 24 8886
2443 1.41198 -0.953358 1.24939 200 183 171 0.299705 4 6644 5 6616 20 5765
10783 -7.62702 5.01904 0.62705 64 63 57 2.75725 19 10086 18 10123 27 9980 28 9722
9042 8.24334 -12.7977 -6.43871 123 126 125 0.212626 24 9199 21 8299
2896 1.85418 -1.58533 1.22143 168 158 148 0.794738 4 9443 20 8677 21 7839 22 5998 3 8344
10413 -8.15196 -4.68519 2.54319 32 36 27 1.81966 12 9379 13 5259 29 9786 11 8072 10 9182
9961 -0.0557656 0.449801 1.37517 29 42 31 0.382627 25 8250 24 8941
2444 1.54148 -1.0842 1.22959 211 181 146 0.736045 4 3922 5 3645 20 5767 21 2934 3 5770
3306 5.71384 -2.27739 4.58798 198 205 210 0.287823 5 842 22 4535 4 1091
9043 -0.0329511 -0.547115 1.11864 188 170 148 0.590765 22 6542 23 3441 21 8320
1526 0.909143 -0.711962 1.32925 109 141 100 2.36327 21 3003 2 7875 3 5809 20 5818
2897 2.18543 -1.99589 1.23238 176 171 165 0.678025 4 8319 5 8314 20 8662 21 5851 22 5918 23 2562 3 8345 6 9372
10414 -7.82275 -4.73647 0.489211 71 96 76 0.829791 14 1949 29 7957 11 6297 12 6061 13 1801 10 5838
9962 -0.418591 0.0977208 1.4933 158 152 131 3.23474 25 7160 24 8946
2445 1.48007 -1.10023 1.23154 93 70 48 2.02291 5 8463 21 5959 3 5771 22 2913
3307 5.61904 -2.39356 4.53074 60 65 62 0.613321 21 4291 22 4536 4 1092
9044 -0.126131 -1.34849 1.07531 144 141 138 0.412915 22 6551 23 3449 21 8323
1527 0.684916 -0.57035 1.32256 86 97 72 1.21017 21 3071 2 7915 3 5862 20 5856
2898 2.13129 -2.39491 1.23541 154 145 137 1.03394 5 6417 3 8346 22 2695
10415 -7.86236 -4.83251 0.893472 25 26 22 1.05527 13 1610 29 7816 11 6103 12 8203 10 7982
10587 1.1719 -0.270123 2.24985 60 50 39 0.952068 4 5790 20 4876 22 1601 2 5095 5 7837 21 5082
3070 4.69816 -3.49925 4.43467 26 26 24 0.987216 3 9193 24 8432
9963 0.71272 -0.764358 1.27562 122 147 112 0.284871 26 8170 24 8953
2446 1.60719 -1.18785 1.22014 114 90 59 0.828881 4 6649 5 6546 6 9560 20 5769 21 2936 22 2805 3 5772
3308 5.54356 -2.82308 4.56544 121 140 106 0.710567 21 300 4 1096
10786 2.46219 1.28843 3.00611 140 146 105 1.51301 2 6915 3 6534 4 7464 20 6691 21 8552 23 4863 1 7054 26 744 25 759
2899 2.11066 -2.65156 1.23782 166 163 158 0.0919496 5 6418 3 8347 22 2697
10416 -7.87129 -4.83624 0.941852 39 38 29 1.38093 13 4045 29 7815 11 6102 12 5838 10 2086
3309 5.51537 -2.68092 4.49737 89 88 81 0.911545 6 984 22 406 4 1097 3 805
10787 5.04865 -3.73594 4.60681 124 147 99 1.98304 23 9661 26 7751 25 7804 22 9669 24 8395 4 8807
9046 4.57417 -3.51693 4.42 134 152 114 1.80968 3 8596 22 291
1529 1.85645 2.79353 4.60599 254 254 254 2.84821 1 4243 3 9120 2 8010
10589 2.63955 0.705233 3.18391 200 193 106 1.91788 4 5222 23 4789 2 4554 3 4447 22 7185 1 6965 24 4703 26 761 25 4371
2901 1.26401 -0.860793 1.30959 63 85 48 1.28588 21 7877 22 6042 23 2681 3 8368
10418 -8.07709 -4.81029 1.95751 132 124 106 1.58735 12 7861 14 1156 11 5629 10 7640
10590 3.17529 0.668882 3.50165 30 34 13 1.22127 20 4292 23 640 3 4390 4 5156 21 4369 22 4610 1 6872 2 4486 5 7322 24 649
3073 0.859071 -1.1126 2.9442 195 192 188 1.09895 21 9413 22 8695 3 9207 23 7286
9966 -0.541286 -0.0867786 1.45408 106 101 74 0.622252 25 7230 24 8984
2449 1.7003 -1.2797 1.22717 207 187 169 0.207232 4 6587 5 6548 20 5772 21 2857 3 5775
3311 3.55386 -2.60585 3.8789 93 109 67 0.814153 21 305 4 1104 3 814
9048 2.506 0.793367 3.36296 143 144 111 0.460269 22 7132 23 4647 26 609 21 8446 25 617
1531 0.870211 -0.696082 3.0315 153 146 137 1.05749 3 6329 5 7281 21 6735
2902 1.25859 -0.860807 1.31165 67 89 51 1.33677 4 8389 22 6043 23 2682 3 8369
10419 -8.07709 -4.81029 1.95751 132 124 106 1.58735 12 7860 14 1155 11 5628 10 7639
10591 2.64035 0.733048 3.43518 44 49 14 0.532722 21 6845 22 4527 23 4649 20 4220 24 640 3 4381 2 4480 1 6864
3074 5.61906 -2.92577 4.48802 41 41 37 1.31765 6 11893 3 9209 5 9929
9967 -0.540586 -0.086633 1.45409 109 104 77 0.612371 25 7229 26 5340 24 8985
3312 0.861786 -1.82784 2.97492 116 132 94 2.15012 21 4300 4 1106
10790 0.798811 -0.753827 2.60575 155 147 134 1.70511 5 10005 20 9607 22 8798 24 7182 26 4558 3 8702 4 9838 21 9503 23 7445
9049 0.789177 -0.714009 2.83419 177 169 158 2.07378 23 7329 21 8448
1532 2.37082 0.711607 3.58382 57 68 30 0.708705 3 4258 2 8121
2903 1.39203 -0.972896 1.25036 193 174 156 0.915271 4 9459 5 9611 20 8670 21 7879 22 6045 3 8370
10420 -8.19818 -4.60116 0.316688 148 171 163 0.671584 14 1961 29 2737 13 1817 12 6063 10 5939 11 2684
10381 -5.79961 1.74831 0.582944 183 182 180 1.95767 17 8204 16 8704 18 8818 27 5709
9957 3.22117 -1.27732 2.07364 139 154 112 1.50799 25 6875 26 6871 24 8727
2440 2.15288 -1.78944 1.2246 117 105 86 0.636175 5 3386 20 5738 21 2775 3 5737 6 7287
3302 4.78596 -5.90735 4.61897 84 88 85 0.468887 21 4243 23 406 4 990 22 321
10780 1.20099 -1.17205 1.18843 205 182 158 1.75195 4 6768 20 7621 21 7914 23 2835 5 6691 21 6012 22 2920
3263 1.21437 -1.15275 1.24582 216 183 146 2.76385 20 10424 21 10883 22 10938 23 10764 3 10067 4 11190
9039 -0.0352987 -1.46944 1.08586 144 139 139 0.877122 22 3611 21 8284
1522 0.830831 -0.382302 1.35623 60 64 35 2.10722 3 5805 20 7579 2 7813
2893 1.72495 -1.00102 1.24167 215 183 148 1.59237 4 8352 5 8411 20 7524 21 5897 22 2797 3 8341
10410 -8.08101 -4.76158 1.27828 133 129 115 1.08118 13 3920 14 5668 29 7705 11 8430 12 8101 10 5518
10371 -11.4907 4.52742 1.79816 162 157 148 1.46112 18 1161 28 1160 27 1126 29 1098 17 1130 16 1103
9956 0.333567 -4.41461 2.59496 30 41 20 0.923748 26 6780 24 8649
2439 2.15288 -1.78944 1.2246 117 105 86 0.636175 5 3385 20 5737 21 2774 3 5736 6 7286
3301 4.82056 -5.87496 4.6104 33 34 32 0.95322 21 347 23 405 4 989 22 322
10779 5.59032 -3.70885 4.53681 201 222 239 1.1946 4 7337 6 5505 22 4542 23 4667 24 4637 26 4332 25 4302 5 4961 21 6799
3262 2.77038 -2.714 1.63232 140 134 45 1.00509 4 11135 3 10062
9038 0.0728616 -0.953711 1.08414 169 169 169 0.838891 22 6476 23 3326 21 8279
1521 0.763935 -0.318444 1.33742 35 39 24 0.437819 3 3331 20 5812 2 7811
2892 1.28199 -0.700812 1.34475 97 128 66 1.60483 20 8656 3 8338 21 9071 2 9479
10409 -7.87648 -4.84673 0.830128 31 30 26 0.422974 13 1613 14 1727 29 7819 11 8556 12 8205 10 5728
9955 5.28021 -3.10567 3.06281 142 149 150 0.745563 3 9630 25 7985 26 7930
2438 1.89363 -1.41437 1.2242 209 182 157 0.989614 4 6589 5 6494 6 9501 20 5735 21 2861 3 5735
10778 5.2658 -4.14626 4.51946 79 78 68 1.44593 4 5081 6 1136 23 512 3 6350 7 5808 21 6801 22 4546
3261 3.58573 -2.61013 1.41668 114 118 73 0.836961 24 10362 25 9559 26 9211
9037 0.0344764 -0.792091 1.07859 139 138 136 0.0501632 22 3697 21 8278
1520 0.345154 -0.269055 1.49711 151 165 169 0.651673 20 5804 21 6035
2891 2.41835 -2.18723 1.24723 167 166 164 0.791291 4 9396 5 8315 20 8649 21 7766 22 5841 23 2566 24 2594 3 8326 6 10714 23 5916
10408 -5.07072 -2.7954 1.58553 89 93 32 0.366855 13 1688 14 1802 12 2245 11 2314
9954 0.848367 -0.686207 2.54591 140 133 121 3.36278 25 7982 24 8590
2437 1.89872 -1.39698 1.22777 203 173 146 0.440242 20 5732 21 2856 3 5734
3299 3.86504 -2.90391 4.13094 72 69 59 0.556026 5 860 6 992 22 284 4 956
10777 3.1264 -0.848937 1.47217 164 138 103 1.47871 3 9901 20 10358 21 10767 22 10925 24 10050 4 11041 22 10748 23 10734
9036 -0.0399764 -0.503923 1.17095 186 162 128 0.0721352 22 6538 23 3319 21 8270
2890 2.22957 -1.75986 1.26181 145 149 142 0.352123 4 8317 20 8648 21 7806 22 5916 3 8325
10407 -4.88244 -2.74031 1.4777 140 129 47 0.792511 13 1884 14 2037 11 2483 12 2548 10 2377
9953 0.0394613 -3.6288 2.84034 34 47 28 1.5745 7 10760 26 6653 24 8515
3298 0.809644 -0.76671 2.94678 86 63 43 0.627821 5 829 4 934
10776 0.80731 -0.735824 2.8837 194 187 175 2.01513 3 9594 5 10916 20 10152 24 9369 21 10525 22 10650 23 10283 25 8709 26 7824
3259 4.21883 -2.09975 2.32202 131 151 95 1.72417 4 11016 3 10055 5 11163
9035 -0.0217954 -0.47631 1.17831 155 136 106 0.098618 22 8304 21 8269 23 3317
1518 1.81493 -0.962505 1.2723 212 182 152 1.56844 21 2847 2 7774 3 5728 4 6582
2889 2.2223 -1.75795 1.26425 141 146 139 0.956147 4 8318 5 8312 20 8647 21 7805 22 5915 23 2558 24 2590 3 8324 6 10751
10406 -4.8781 -2.7347 1.44645 85 96 27 1.25311 13 1886 14 2127 11 2631 10 2378 12 2549
9952 0.0927131 -3.67846 2.85606 31 42 26 1.96578 6 11289 25 6673
2435 1.86284 -1.1035 1.26752 193 158 125 0.897167 4 6584 5 6491 20 7528 21 5899 3 5732
10775 0.802484 -0.847325 2.99585 162 150 135 1.34262 21 9378 22 9691 24 7007 25 6535 23 8716 26 4393
3258 4.49252 -2.0111 2.58762 144 142 116 1.54803 20 10343 21 10847 22 11014 3 10054 23 10892
9034 4.42539 -7.5036 -2.74361 57 81 42 2.55906 23 6718 21 8246
1517 1.79993 -0.961116 1.27703 205 177 147 2.07362 21 2846 2 7773 3 5727 20 5723
9951 3.80714 -2.86 4.5673 98 129 104 1.45299 25 6396 26 6356 24 8367
2434 1.80001 -1.0177 1.25387 217 196 172 0.744154 4 8353 5 8410 20 5726 21 5896 22 2795 3 5731
3296 2.50985 0.794961 3.51933 156 164 142 0.285888 21 136 4 910 20 113
10774 1.11568 -0.213799 2.33774 43 39 33 1.74202 5 10639 21 9587 22 9870 23 7572 24 5154 25 4734 2 9760 22 8884 26 1376
3257 -0.120888 -0.74392 2.96815 136 144 133 0.808496 5 10443 3 10030
9033 0.130465 -0.697873 1.09821 180 184 190 0.234044 22 3592 21 8230
1516 1.34555 -0.800407 1.32879 119 129 71 1.34895 21 2930 2 7772 5 6613
9950 2.47653 1.08166 3.68479 146 144 118 1.79744 25 7751 26 7720 24 8359
2433 1.67175 -0.95069 1.26903 214 189 163 1.29335 4 6583 20 5724 3 5729
10773 0.898941 -0.748314 3.16984 206 201 195 1.06091 2 6551 3 589 22 154 23 374
9032 0.0499974 -1.63117 1.09736 164 166 165 0.259304 22 6408 21 8200 23 3332
1515 0.919549 -0.399796 1.39642 68 83 54 1.6319 20 7548 21 5952 2 7768 4 6701
9949 -1.44463 -0.477955 0.97907 154 154 153 0.857691 25 5981 26 3298 24 8239
2432 1.35235 -0.703376 1.34536 100 124 70 0.497822 5 8402 21 5892 3 5724
3294 3.42457 -3.27395 4.15823 60 72 32 1.0026 5 749 6 1000 22 296 4 845 7 874
10772 3.80979 0.683724 3.34259 28 36 25 1.50818 1 6971 21 8525 20 6655 22 4773 23 769
9031 0.167511 -1.35526 1.08872 177 170 164 1.48971 22 6403 21 8196 23 3329
1514 1.88909 -0.925945 1.26513 188 161 134 0.301747 5 6489 21 2845 2 7731
9948 -1.81292 -2.23589 1.109 110 87 75 0.126793 30 9611 24 8192
2431 2.53344 -2.66083 1.25326 155 146 139 0.341289 5 3124 3 5708 4 3637 21 2670
3293 4.25584 -3.13115 4.51696 131 150 127 1.3426 22 172 4 834 24 568
10771 1.79451 -0.762373 1.32414 185 155 127 0.613985 4 9417 21 7798 22 5901 23 2676 2 9445 3 7300 5 8354 20 7489
3254 3.62059 -3.10966 1.36908 142 138 132 1.47788 4 11042 5 11191 22 10750 23 10736 24 10068 25 9302 26 9212 3 10007
9030 0.162047 -2.24516 1.14636 166 162 161 0.753621 22 3262 21 8119
9947 -1.78721 -2.27461 1.10632 177 153 114 0.222817 30 9610 24 8190
2430 2.47824 -2.50341 1.24654 173 165 159 0.40317 4 3634 5 3263 20 5682 3 5707 6 3659
10770 5.46123 -4.31505 4.45494 34 35 32 1.29052 5 7394 25 4307 26 4337 21 8461 4 8848 6 8321 23 7233 24 4641 3 8639
3253 3.72403 -2.34581 1.44785 105 90 68 1.47918 4 11134 5 11185 23 10927 3 10006
9029 0.269007 -1.73901 1.11994 151 150 148 0.220591 22 6330 23 3207 21 8115
9946 -1.76315 -2.00238 1.07681 101 82 64 1.89338 25 3257 30 7894 24 8186 26 3156
2429 2.47369 -2.50143 1.24761 174 165 159 0.355492 4 3635 20 5681 3 5706
3291 3.00982 -2.02984 4.04326 54 49 39 1.94474 5 623 22 4415 4 828 6 8158 21 6691
10769 0.904105 -1.12952 2.60136 155 145 126 2.50842 5 9077 21 7072 4 8973 22 4874 3 7890
9028 0.269007 -1.73901 1.11994 151 150 148 0.220591 22 6331 23 3206 21 8114
1511 0.919786 -0.387415 1.42574 72 79 78 1.70491 3 7328 20 7545 21 7867 2 7726 23 2673
10744 3.11531 -1.01005 1.8635 166 161 158 0.85506 3 5227 20 5182 22 2148 2 7355 4 6010 5 5867 21 2046 6 9013
3227 4.5751 -3.23232 1.93158 44 46 37 2.2686 20 10229 22 10717 21 10602
9003 1.14829 -3.35259 2.50317 46 50 35 1.1075 22 5101 21 7190 30 6274
1486 2.63834 -0.925454 1.38811 198 173 149 1.31316 21 2514 2 7588 3 2827
10743 2.19503 -0.99079 1.31201 154 114 74 1.44115 20 8629 22 5906 23 5911 5 9527 21 7799 24 2584 2 9447 4 9391
3226 4.00204 -0.205567 1.93842 24 25 19 1.53875 4 11124 20 10225 21 10752 5 11288
9002 5.08593 -4.8889 2.7567 103 118 87 1.57082 22 5197 23 5205 21 7184 5 5499 4 7717
1485 2.42516 -0.844276 1.3636 206 183 163 0.555335 4 6423 5 6389 22 2594 2 7587 3 5544 20 5516
10742 1.85978 -2.15566 1.20652 179 171 163 1.62975 6 10794 21 9060 4 10145 5 9560 20 9830 22 7954 23 5976 24 2596 3 9472
9001 2.7096 0.91445 2.6657 69 72 14 0.458673 2 7008 23 5048 21 7165
1484 2.44885 -0.808202 1.36375 213 187 161 0.863922 3 7217 4 8264 5 8297 20 7413 21 5779 22 2590 2 7586
10741 3.50181 -3.20644 4.12865 82 104 85 2.44959 5 9908 22 10295 24 9338 4 10316 25 8667 26 9082 23 9662 3 9568
9000 0.82846 -0.850129 2.47675 134 125 111 0.519297 22 5065 23 1259 21 7126 24 1434
1483 2.45278 -0.808205 1.36315 211 186 162 0.848441 3 7218 20 7414 21 5780 22 2591 2 7585
10740 3.19119 -3.39878 3.26357 152 171 171 1.57706 6 5791 24 4902 5 7569 7 9008 23 4905 22 7261 26 940 4 7496
3223 4.29439 -1.79612 2.9612 64 87 21 1.35458 4 10989 3 9848 22 10681 23 10668
8999 0.95216 -3.54393 2.74251 34 32 24 0.705696 23 5011 21 7049 6 5925
10739 -0.15791 -3.83732 2.79123 28 39 25 1.6295 26 6656 30 10169 25 6675 7 10809 8 10581
3222 3.95977 -2.01507 3.14508 55 80 19 2.02311 6 12323 21 10551 3 9841 23 10659
8998 4.14873 0.711194 3.34537 50 53 41 2.28994 22 4779 21 7024 2 4625
1481 2.27512 -0.630575 1.36659 156 108 64 0.469983 5 6388 21 2625 2 7583
10738 -7.89075 -4.81662 1.20897 114 132 90 1.40815 13 3921 14 4062 11 5928 12 8099 10 5520
3221 3.05326 -2.6 3.05558 98 116 75 2.10741 21 10542 25 8742 3 9829
10737 -11.2268 4.73643 1.81111 81 64 47 1.34945 17 7137 18 6846 16 5075 27 7936 28 7761
3220 0.834375 -0.559317 2.62975 90 77 62 0.00333361 22 10875 3 9826
8996 2.45288 1.316 3.0411 102 117 89 0.31032 22 7227 21 6946 23 4780
10736 -10.9238 4.97765 1.27473 151 140 130 2.3126 18 9096 19 9554 28 8665 16 10243 17 8693 16 9284
3219 0.729944 -0.857253 2.68115 92 73 53 0.632595 4 10972 5 11136 3 9817
8995 2.82604 1.05073 3.29553 116 114 106 0.885752 20 4341 22 4687 23 4719 21 6892
1478 1.10405 -0.19282 1.60205 99 93 81 1.43797 3 7211 4 9388 20 7451 21 7790 2 7578
10735 -9.48047 6.03532 1.74777 60 54 46 1.93192 18 1021 19 1166 28 4580 27 1164 16 7501 17 1167
3218 0.729944 -0.857253 2.68115 92 73 53 0.632595 4 10971 5 11135 3 9816
10734 -5.70799 2.12627 0.561864 149 143 139 1.54086 18 7776 19 7781 28 3100 16 3709 17 6408
3217 0.805486 -0.730822 2.7139 41 32 20 1.26288 22 10664 3 9815 21 10715
8993 2.83603 1.18526 3.31061 103 116 101 0.557208 22 7178 24 4696
1476 1.04433 -0.116856 1.58995 32 27 22 0.497706 3 5606 4 8298 20 7449 21 5839 2 7576 23 2531
10733 -1.28817 -2.2048 1.12034 129 109 84 0.570743 24 8032 23 10202 30 9652 25 3089
3216 0.785626 -0.706982 2.78176 157 146 135 0.596864 4 10964 21 10711 23 10642
10732 1.66647 -1.1669 1.22281 211 190 163 0.998645 24 5826 23 5974 25 2478 26 2380
10731 2.71096 0.987442 3.98361 213 209 97 0.524408 24 303 23 4440 25 119 26 111
8990 4.27743 -6.76102 4.45382 225 231 241 0.834796 23 4689 24 740 21 6821 22 7115 6 1325 5 4981
1473 1.05883 -0.103098 1.59999 40 35 28 1.72708 3 7251 4 9410 20 5586 21 5834 2 7573
8989 4.31791 -6.71588 4.45615 215 224 239 0.380797 23 7248 21 6820 22 7113
1472 0.991761 -0.0436751 1.55226 53 45 31 0.997736 3 5603 4 8337 20 5585 21 7815 2 7572 23 5897
10729 -0.677121 -2.03206 1.08935 157 158 157 1.06317 23 10133 30 11614 22 10836 26 2821 24 7936 25 5654
8987 5.14369 0.703648 4.55079 171 186 202 0.984207 22 7045 23 4518 21 6731
10727 -0.69416 -1.6574 1.06322 148 154 156 1.6732 23 9469 22 10620 24 6269 25 2988
8986 2.96087 0.809395 3.69363 172 179 160 0.437573 22 7039 21 6722
1469 2.87065 -0.871867 1.44457 161 129 90 1.00581 20 5432 21 5705 22 2472 2 7559 3 7171
8984 3.65805 -6.1439 -2.69216 128 131 134 3.43152 22 9544 21 6634
1467 2.78728 -0.735727 1.40393 100 84 72 1.08912 3 2709 20 5430 2 7557
8983 -0.0568133 -0.499484 1.16133 139 116 90 0.562568 22 6539 23 3440 21 6594
1466 2.83302 -0.652715 1.41011 107 101 94 0.636114 3 2708 5 6306 20 5428 21 2509 2 7556 4 3453 4 6345
10723 -0.410768 -0.330377 1.05547 118 108 104 1.38089 23 8388 22 9594 24 6262 25 2978
8982 -0.197098 -1.97869 1.10671 128 129 130 0.335332 22 3623 21 6559 30 4698
1465 2.82415 -0.430844 1.42521 98 94 88 1.89285 3 7164 5 6304 20 7361 21 5701 22 2586 2 7555 4 9362
10722 -0.0280022 -0.464261 1.12555 34 32 29 1.83539 23 8288 24 6058 22 9488 25 5651 26 2687
8980 -0.315795 -0.374256 1.82561 126 138 116 1.31647 22 5889 21 5937
1463 1.04538 -0.0474877 1.67151 134 124 112 0.514559 3 7210 4 9387 20 7405 21 7746 2 7552
8979 3.76242 -4.39562 1.38753 97 95 93 0.837581 22 5687 23 2306 21 5642 4 8115
1462 1.02818 0.0664874 1.627 91 77 62 1.20627 3 7208 4 8254 20 7402 24 2409 2 7551
8978 3.72607 -3.63896 1.41942 107 114 98 0.542276 22 2374 21 5640 4 6232
1461 -0.520571 -0.11803 1.96089 214 234 251 0.0812091 22 2567 23 2253
8975 2.69713 -1.63502 1.50925 28 29 23 0.487391 22 5762 23 5807 24 2285 25 2192
1458 3.00961 -0.462789 1.48743 125 117 106 1.70485 3 7113 4 8155 20 7291 21 7650 22 5747 2 7525
8974 3.60808 -1.43954 1.50601 177 171 159 0.763065 22 5666 24 2274 21 5613 23 5701
1457 1.20966 -0.198806 1.70908 100 86 71 0.868017 3 5466 20 5423 2 7524 4 6344
8973 2.52634 -1.76343 1.71811 156 179 170 1.3603 22 5671 23 5604 24 2140 25 2034 21 5525
1456 1.06316 -0.132383 1.72674 167 161 155 1.55459 3 7162 20 7359 21 7692 22 5815 2 7523
8972 3.56144 -1.51948 1.6051 181 144 93 1.59591 20 8503 22 5662 21 5522 23 9142
1455 1.07337 -0.115968 1.71183 62 50 38 1.07857 4 8204 20 5421 21 5771 2 7522
8971 2.89301 -0.446087 1.71786 54 55 48 2.54173 3 2466 22 7802 21 5515
1454 1.05922 -0.0833311 1.72914 129 116 100 0.739205 3 5461 4 8203 20 7357 21 7690 2 7521 22 2578
8970 3.87838 -3.81164 1.76437 37 41 24 0.563275 22 2192 21 5441 4 6032
1453 1.06907 -0.109298 1.73783 44 36 27 0.36446 3 5464 4 6343 20 7358 21 7691 22 5739 2 7520
10710 -4.6199 3.1958 1.02267 97 105 71 0.366128 19 7479 18 8641 27 2240 28 5248
8968 3.65844 -1.16535 1.95665 106 132 106 1.52608 22 5463 23 5492 21 5307
1451 1.04125 -0.0590908 1.74932 150 133 111 1.04252 3 7161 4 9361 2 7518
8967 2.53253 -0.696446 2.02966 33 35 26 2.35128 22 1978 23 1942
1450 1.05716 0.06772 1.68687 171 167 163 0.369569 3 7160 20 7400 21 7744 24 2254 25 2016 2 7516
10707 -7.60674 6.99586 1.96271 180 172 164 1.34477 18 9575 19 9512 17 10439 27 9405 28 9119
8966 4.81152 -4.17413 2.21773 18 24 14 1.28676 3 8077 23 1804 21 5201 22 1864 5 2176
1449 1.95437 0.661175 1.51737 172 186 183 0.761042 3 7157 20 7353 24 2402 2 7514 4 9354
10705 -5.33501 3.23651 0.810255 46 57 44 0.6966 19 7509 27 5266 17 9823 18 8598 27 2352 28 5317
8963 1.45104 -3.19078 2.43788 37 46 25 0.176955 22 5202 21 5034 5 5502
1446 1.69709 1.56149 1.45011 162 161 156 0.147005 20 8551 2 7508
10703 -5.30757 3.16933 0.619422 98 96 92 0.576202 27 2468 17 9183 18 7616 19 5850 28 2677
8962 0.804124 -0.800397 2.30983 91 81 66 0.411646 22 1427 21 4992 20 4794
10700 -8.90823 5.58253 2.90032 192 204 215 2.19028 28 7600 17 8409 27 7760 18 7929
8959 0.806271 -0.714312 2.38545 174 170 163 0.678027 20 6843 22 1425 21 4878
1442 3.08551 -0.00852761 1.50448 98 89 81 1.55976 21 7647 22 5746 2 7470
8958 1.45145 -3.39077 2.62466 41 39 29 1.75947 22 1153 21 4820 5 1668
1441 2.93423 0.0103892 1.51562 80 64 46 1.34748 5 9462 21 5603 22 5744 2 7469
10698 3.02742 -1.55522 2.12972 69 79 35 1.18021 21 5183 22 5364 4 5909 23 1785 24 1788
8956 1.3569 -3.67181 2.85408 26 41 15 1.13935 22 993 21 4651
1439 1.16145 -0.199354 1.83213 141 138 133 1.47749 3 7106 4 9321 5 10259 20 7284 21 7640 22 5650 2 7466
8955 1.55255 -3.31075 2.88847 46 73 17 0.538577 23 971 21 4642 5 1383
1438 1.08077 -0.119597 1.79311 71 63 52 0.464621 3 5382 20 5335 21 5692 22 5736 2 7465
8954 2.64952 0.639383 3.02381 71 74 30 0.490321 2 4617 22 4771 21 4599
1437 1.08297 -0.133579 1.81594 142 134 124 0.51293 3 5381 4 8147 20 5339 21 7639 22 5740 2 7464
8953 3.83674 0.56964 3.3257 97 106 90 0.976171 22 4777 21 4531 2 4622
1436 1.08599 -0.133359 1.83855 129 121 110 0.525227 3 5379 20 5337 21 5600 22 5647 2 7462
10586 1.14699 -0.258142 2.15599 102 92 80 1.01965 3 5030 20 7041 21 5174 2 5198 4 7886 5 7912
3069 4.69816 -3.49925 4.43467 26 26 24 0.987216 3 9192 24 8431
10585 2.98521 -0.993357 2.14417 174 163 140 0.904132 3 1971 4 2471 5 2296 22 1824 2 5211 6 6415 21 1728 20 1366
3068 0.764384 -0.887677 3.001 226 218 205 0.752244 4 10313 5 10509 3 9189
10584 3.01047 -0.994132 2.14371 179 166 142 0.305544 5 2297 2 5212 3 1970 4 2472 21 1727 20 1367
3067 0.898169 -1.19032 3.13674 168 153 135 2.45344 22 9664 23 9690 3 9184 21 10031
10583 1.06737 -0.153457 2.03249 139 132 122 0.527386 22 1959 2 5277 5 5843 20 1665 21 2017 2 2107
3066 0.898169 -1.19032 3.13674 168 153 135 2.45344 22 9663 23 9689 3 9183 21 10030
10582 3.05742 -0.915367 1.90921 95 112 94 0.708169 3 2309 2 5378 4 2810 5 2468 21 2041 23 1947 20 1688
3065 0.813899 -1.08943 3.05963 175 165 148 1.32592 21 10040 22 9662 23 8717 24 6953 3 9182
10581 3.11001 -0.935721 1.84571 105 123 106 1.00248 3 2315 2 5380 20 5180 5 5866 22 2147 23 2107 4 6007 21 2045
3064 3.66913 -3.25842 4.29879 159 171 164 1.31193 22 9644 3 9174 4 9681
3102 3.00815 -1.34642 1.81573 35 38 24 1.62048 5 11004 6 12397 3 9392
10580 1.17292 0.0927329 1.8866 78 64 50 0.894358 20 5243 22 2306 21 5597 1 7646 2 5441
3063 4.88131 0.434564 5.09512 111 127 104 2.44603 26 15 3 9172
10579 4.02754 -0.820476 1.57657 51 47 40 1.00194 3 2479 20 1847 2 5566 5 2808 21 2209
10578 1.06945 0.0677201 1.73544 129 114 98 0.503162 3 2688 21 5688 4 3421 20 2097 1 7744 2 5627
10577 1.04727 0.0220296 1.76209 88 75 62 0.696301 3 2689 4 3423 21 5687 1 8918 2 5628
3060 0.854075 -1.06787 1.14741 168 162 158 1.64618 4 10225 5 9712 21 7977 3 9105 22 6195
10576 -0.317912 -0.270691 1.9223 248 251 253 1.40635 3 5591 20 5635 2 5772 21 5826 1 7852
3059 0.822349 -1.00162 1.18503 92 93 67 1.91395 4 10222 5 10401 23 2977 3 9103
10575 -0.456618 -0.241313 1.90913 168 184 209 1.61988 3 5661 20 5704 2 5823 21 5933 1 7895
3058 0.900167 -1.02922 1.21759 204 187 170 2.66741 21 9123 23 2974 3 9093 22 6120
10574 -0.467118 -0.264762 1.89924 170 184 206 1.86694 3 5662 20 7539 2 5825 1 7897
3057 0.887308 -1.02737 1.22392 208 186 166 0.724612 4 10207 5 10387 21 9122 3 9092
10573 1.81138 -0.721262 1.3201 189 155 120 0.730323 20 5659 21 2760 2 5896 3 5688 4 6514 5 6486
3056 1.37645 -1.82128 1.17727 173 167 160 0.490582 20 9386 23 2840 3 9079
10572 5.13842 0.701944 4.54909 176 187 197 0.934351 3 4264 4 4980 23 4517 25 6343 2 6694 20 6517 24 6845 26 6302 21 6730 22 7044
3055 1.30207 -1.5352 1.16349 162 155 148 1.05897 21 9101 22 8032 23 6050 25 2487 26 2387 3 9078
10570 3.16942 0.642329 3.74379 57 74 22 0.919462 3 6418 20 6515 23 7176 22 8628 21 8416 1 8234 2 6751
10569 3.30635 0.665063 3.67648 133 148 119 1.28673 20 6556 21 6778 22 7089 23 7220 3 6419 4 7324 1 9258 2 6753 5 8902
3052 0.851304 -0.707224 1.31195 110 145 77 2.19426 4 10638 21 9874 22 9329 3 9075
10567 2.66826 1.28463 3.19814 128 129 99 1.45921 3 6486 4 9769 2 6872 20 8092 21 8476 22 4679 1 7007
3050 1.56962 -1.96713 1.18268 172 166 160 0.730088 5 8421 20 9389 21 7887 22 6001 3 9065 6 9507
10566 2.57474 1.21891 2.73276 168 164 95 0.759618 4 8996 20 6789 21 8619 3 6650 2 7005 1 7188
3049 1.56877 -1.96678 1.18302 173 167 162 0.756349 5 8420 20 9388 21 7886 22 6000 23 2693 3 9064 6 9506
10565 2.66292 1.27692 2.01906 19 22 16 0.53561 3 6919 20 7104 21 8803 22 7667 2 7221 4 9160 1 8703
3048 1.55047 -1.91306 1.19495 171 163 156 0.0831193 4 9462 20 9387
10564 1.21783 -0.213911 1.8588 139 135 130 1.36637 3 8177 5 10205 20 7217 2 7397 22 5652 21 7641
3047 1.51727 -1.88731 1.18014 153 144 138 1.727 4 9463 5 9592 20 9385 21 9073 22 5999 23 6052 24 2720 25 2492 3 9062 6 10831
10563 2.03649 0.665478 1.54162 173 187 174 0.650054 3 5451 21 7741 2 7452 20 7354 1 8889 4 8195
3046 1.1644 -0.987611 1.24255 116 113 100 2.15562 4 9488 20 9371 21 9098 22 6047 3 9060
10562 3.09969 -1.04361 1.68733 99 86 69 0.746904 3 5309 4 6130 5 6107 20 5265 2 7477 6 9092 21 2215
10561 2.98033 -0.936585 1.39859 120 109 99 1.77562 4 3298 22 2476 3 2712 5 3085 20 2122
3044 0.928042 -0.674793 1.34006 123 151 93 0.198205 4 10625 5 10814
10560 2.41533 -0.694328 1.38212 186 142 96 0.674298 3 7216 4 6346 20 7410 21 5778 22 2589 23 2539 2 7584 5 8296 22 5820
10559 2.83428 -1.03953 1.38624 106 101 96 1.10441 4 6351 5 6313 21 5711 2 7589 3 5546 20 5518 22 2598
3042 1.93341 -2.01793 1.20865 180 172 166 0.568733 20 9353 21 9036 22 7953 3 9045
10558 -0.59514 -0.165838 1.91114 165 182 203 0.631767 3 8328 20 9339 2 7614 1 9007
3041 1.92424 -2.01456 1.21152 183 176 170 0.770484 20 9352 21 9037 22 7952 23 5975 24 2595 3 9044
10557 1.13745 -0.628942 1.55204 183 191 202 1.38317 3 5618 21 5845 2 7639 4 6512 5 6481
10556 2.25792 -1.02728 1.30576 119 83 50 0.344949 5 6394 2 7687 3 5621 4 6428 20 5600 21 2762 22 2686 21 5847
3039 1.72411 -1.44316 1.21329 155 140 125 1.88278 4 9442 20 9349 21 9057 3 9042 5 9591
10555 -0.630825 -0.230202 1.88291 247 249 253 1.89791 3 7348 20 8697 2 7717 1 7967
3038 1.33966 -0.969307 1.23625 83 66 48 1.95537 4 10170 5 10345 20 9841 21 9841 22 9297 3 9041
10554 -0.630825 -0.230202 1.88291 247 249 253 1.89791 3 7349 20 8698 2 7718 1 7966
3037 1.09273 -0.884193 1.33398 110 137 75 0.999711 4 10167 5 10344
10553 1.74895 -0.792805 1.31581 185 142 101 1.33285 4 3736 5 3486 21 2840 2 7729 3 3052 20 5660 3 5689
3036 1.82021 -1.25321 1.24423 139 110 80 0.796519 21 9056 22 7991 23 8027 24 5759 25 5358 26 2381 3 9024 20 9334
10552 1.77436 -0.830009 1.30982 211 181 151 0.545606 4 6515 21 5895 22 2793 2 7730 3 5690 5 6488 20 5661
3035 1.89525 -1.27374 1.26798 198 174 156 1.50864 4 9419 5 8356 6 10825 22 7950 23 5973 25 2348 3 9023
10550 1.03848 -0.696445 1.34794 107 137 88 2.12977 21 5955 2 7817 20 5762 3 3243
3033 1.79526 -1.13051 1.25823 141 107 75 0.464479 4 10143 20 9332 21 9055 22 9265 23 8026 24 5758 25 5353 26 2378 3 9021
3071 0.759038 -1.03213 2.91592 217 209 196 2.5151 23 9712 3 9205 4 9722 5 9902 21 10061
10549 0.881461 -0.693264 1.34116 113 144 80 1.62504 21 3001 2 7874 3 3342 5 6676 20 5817
3032 1.61676 -1.0099 1.24483 126 115 100 1.92503 5 9586 20 9347 21 9053 22 5992 3 9020
10548 2.79456 0.789481 3.1575 28 38 18 1.18002 3 7849 20 8127 21 8523 22 8746 23 7317 1 9350 2 8246
3031 1.6223 -0.731044 1.30065 126 144 111 1.76795 5 10322 22 5988 4 10140
10547 1.04735 -0.229813 2.55241 55 44 35 1.2141 3 4676 20 8193 21 7121 23 8886 2 8301 22 8827 24 7179 25 6702 26 6626
3030 1.98528 -1.38144 1.27396 192 161 147 2.01654 20 9335 21 9035 3 9011 4 9420 5 8357
10546 0.836008 -0.479538 2.44528 95 86 70 1.31035 20 8228 2 8343 22 7398 21 8655
3029 1.86249 -1.13433 1.28073 199 178 158 1.34846 21 9809 22 9230 23 8024 24 5756 3 9010 26 5202 20 9822 25 7113
10545 1.09633 0.0268781 1.93992 175 170 167 1.3621 3 7044 4 9251 21 8880 20 8490 22 7728 1 9583 2 8551 23 7799
10544 1.07397 -0.148038 1.98637 162 156 148 0.421807 3 6996 4 9253 20 7161 21 7506 22 7731 23 5479 24 1971 2 8554 25 1704 26 1704
3027 1.27071 -0.54012 1.42415 99 127 65 0.170587 22 7987 3 9007
10542 -0.205761 -0.322914 1.92408 163 183 210 0.675649 3 7202 20 8616 2 8678 22 2456 21 7742
3025 2.44164 -1.8904 1.31064 157 167 145 0.728694 21 9008 22 7913 23 7984 3 9003
10541 3.03792 -0.912165 1.45264 172 154 131 0.536265 4 8162 5 8189 20 7366 22 5753 2 8685 3 7170 21 5703 23 2405
3024 2.49392 -1.65169 1.35595 35 37 28 1.83147 20 9803 21 9005 22 9197 23 7982 24 7594 25 7062 3 9002
10540 2.95936 -0.925114 1.42607 194 170 148 0.26748 5 6215 20 5433 21 5706 22 2475 2 8686 3 5476 4 6286 23 2408
3023 2.45413 -1.57279 1.32978 53 64 43 1.95377 4 9394 5 9500 20 9309 21 9004 22 7911 23 7981 24 5684 25 5359 3 9001 26 2235
10539 -0.450865 -0.229531 1.91465 168 184 206 1.4106 3 8313 20 9327 2 8699 1 9685
3022 2.38147 -1.35742 1.30872 90 82 74 1.03542 4 10106 5 10287 6 11627 21 9003 22 9196 23 7979 24 7646 25 5355 3 9000 26 5204
10538 1.04585 -0.135557 1.57097 40 38 31 0.31638 3 8295 4 9413 20 8623 21 9026 2 8706 22 7942 23 5900
3021 3.39088 -3.25269 1.32002 179 173 169 0.405066 5 8207 22 7877 3 8989 21 7668
10537 1.04585 -0.135557 1.57097 40 38 31 0.31638 3 8294 4 9412 20 8624 21 9027 2 8707 22 7943 23 5901
3020 3.61955 -3.22922 1.36458 168 160 154 0.766258 4 9341 5 8151 6 9173 21 8951 22 7876 23 5827 24 5690 26 2059 3 8988
10536 -0.398401 -0.280255 1.9064 161 181 206 1.43509 3 8315 20 8654 22 2576 2 8743 1 10197
10535 -0.399677 -0.281121 1.90691 166 184 206 0.730962 3 8314 20 8653 2 8744 1 10198
3018 3.51932 -3.13817 1.34135 161 157 151 0.916046 4 10075 21 8952 22 9176 23 7938 24 7601 25 5284 26 5214 3 8986
10534 -0.616676 -0.213693 1.89162 163 181 202 0.975925 3 8350 20 9362 2 8772 1 9721
3017 3.34629 -2.50368 1.36724 85 78 41 1.82498 4 9340 5 9476 6 10619 21 8947 22 5771 3 8985 20 9296
10533 1.20248 -0.505675 1.41172 173 157 74 1.38482 3 7329 20 7516 2 8798 4 8343 21 2835
3016 2.71588 -1.16473 1.39429 146 145 121 0.757135 4 10093 20 9293 21 8986 22 9195 23 7933 24 5679 25 2184 3 8984 26 2226
3054 1.20412 -1.21478 1.16841 183 181 178 0.960057 5 9650 21 9099 22 8079 23 6048 3 9077 20 9383 25 2484
10532 2.00989 -0.939721 1.28664 125 84 50 0.780275 4 8313 21 7801 2 8802 3 7301 20 7490 22 5904 23 2677
3015 2.6131 -0.733603 1.40664 208 181 160 1.36026 4 10089 5 10274 20 9292 23 5798 3 8981 21 8982
10531 0.875827 -0.579169 2.83884 185 180 174 1.89175 22 8717 24 4798 2 9094 21 8482 23 7328
3014 2.36953 0.034493 1.40635 192 155 117 0.459901 20 7406 3 8979
10530 2.86532 -0.513792 1.41399 117 111 105 0.866235 3 8236 5 9497 21 7695 22 7903 23 5793 2 9401 4 8210 20 8561 24 2425
3051 0.69342 -0.586445 1.3294 140 151 117 1.62751 4 10206 21 9119 3 9073 20 9379
10529 -0.64337 -0.201338 1.88846 163 179 201 2.60271 3 9029 20 9849 2 9437 1 10227
10528 -0.406921 -0.369237 1.87377 163 185 210 1.15007 3 8332 20 9340 2 9440 22 5887 21 9069
3011 2.64348 -2.11088 1.53369 127 120 112 0.44696 20 9783 3 8969
10527 -0.406921 -0.369237 1.87377 163 185 210 1.15007 3 8333 20 9341 2 9441 22 5888 21 9070
10526 2.26654 -1.0134 1.3295 187 153 121 1.55698 21 7756 2 9446 3 7263 20 7459 22 5905 23 2542
3009 3.1016 -2.25611 1.50189 100 102 78 1.98979 21 8943 4 10038 5 10734 3 8967
10525 5.64672 -2.81959 4.489 78 80 76 0.768096 5 8964 6 11205 22 9698 4 8841 21 9433 3 8636 24 8428
3008 2.52685 -1.63364 1.54648 38 40 28 1.95142 21 9746 22 10012 20 10060
10524 3.9539 -3.48397 3.16267 140 156 131 1.06262 5 9088 6 10256 21 8606 23 8859 24 7186 25 6663 4 8978 22 8804 3 9260
10523 2.45814 -1.52871 1.59884 138 154 148 1.2531 5 9471 22 7870 23 7872 25 5186 4 9334 24 5577 3 8243 6 11549
3006 2.83145 -1.53061 1.50718 67 71 57 2.17853 23 7874 24 7526 3 8963 21 8938 25 7061
10522 0.999454 -0.0460968 1.5711 185 173 166 2.01698 21 9023 23 5896 4 9409 3 8293
3005 2.64483 -0.638571 1.42106 208 185 165 1.51651 21 8981 23 5794 3 8961
10521 1.83419 -1.07907 1.26345 167 139 113 1.03436 5 9587 22 7990 4 9440 24 5753 25 5351
3004 1.11623 -0.185066 1.75272 109 102 87 1.23905 4 10571 21 10328 3 8960 20 9777
10520 1.16013 -1.15183 1.18123 65 53 44 1.04901 5 9648 20 8711 22 8077 23 6047 4 9518 25 2482 24 5897
10519 0.880487 -0.440438 2.63762 75 70 62 1.80489 5 10579 22 9799 4 9832 2 9684
10518 1.09053 -0.0935092 2.1041 159 154 149 0.496236 23 7693 24 7314 4 9963 25 4950 26 4777
3001 3.48179 -0.894728 1.54767 108 100 92 1.62855 5 10215 20 9256 21 8937 3 8943 4 10033
10517 4.5079 -2.75167 1.84666 159 158 132 1.15299 23 9062 4 9994 21 9672 24 7462 25 6944 26 6938
3000 3.27191 -0.315345 1.5531 97 94 90 1.32908 5 10214 20 9762 3 8941 4 10031
10516 2.66293 -1.93406 1.57915 133 141 143 1.78018 5 10220 6 11551 22 9130 25 5191 4 10037 20 9782 23 9148 26 5133
10515 2.60203 -0.862124 1.39575 213 196 179 1.08011 5 10276 23 5799 4 10090 21 8983 22 7906 24 2435 2 9411
2998 3.8289 -3.03816 1.70434 198 212 225 0.499364 5 9386 6 10533 22 7751 23 7825 24 7471 3 8929 21 8856
10514 1.67625 -1.48955 1.20709 190 185 180 1.24063 6 11684 24 5827 4 10156 5 10326 20 9351 21 9058 22 7992 23 8031 25 2483 26 2385 3 9043 24 2716
2997 3.80821 -3.03064 1.70624 196 210 223 0.662934 4 9272 5 9385 6 10534 20 9749 21 8855 22 7750 23 7824 24 7470 3 8928
10513 1.18877 -0.949704 1.23169 76 65 52 1.77689 5 9646 20 8691 22 6046 4 10171 3 9059 21 7910 2 9958 3 8390
2996 3.97026 -2.94361 1.63257 162 158 155 1.24338 4 9271 5 9387 6 10529 22 9096 23 7821 24 5491 3 8927 21 8891
10511 0.774997 -1.00972 1.16767 202 179 153 1.50726 20 8768 4 10224 21 7976 3 8453 22 6196
2994 3.9554 -2.85022 1.77833 146 143 142 0.325452 6 10527 20 9238 3 8925
10510 0.920208 -1.23929 1.1371 174 172 170 1.47537 5 9713 20 9435 22 8114 4 10226 21 9145 23 2978 3 9106
2993 4.33315 -2.88261 1.59491 62 46 24 0.503109 4 9269 5 8073 3 8924
10509 2.36446 -1.2203 1.30236 174 144 110 1.81846 23 7977 26 2233 4 10582 5 10764 20 9802 21 9787 22 9229 24 5754 25 2345 3 9439
2992 4.33315 -2.88261 1.59491 62 46 24 0.503109 4 9268 5 8072 3 8923
10508 0.947929 -0.672293 1.33296 117 142 85 1.75259 20 9840 23 6042 21 9855 2 9944 3 9058
2991 4.27472 -3.28895 1.76719 52 50 34 1.64178 4 9226 5 9337 6 10531 20 9750 21 8854 22 9055 23 7823 24 7469 25 6946 26 5035 3 8895
10507 0.756502 -0.708903 1.28614 113 147 87 2.63423 5 10398 20 9399 4 10654 21 9121 3 9076 22 6117
2990 4.5583 -3.41538 1.86096 61 59 40 1.48288 4 9224 5 8015 21 8821 22 7690 23 7766 25 6945 26 5034 3 8894
10506 0.728527 -0.765432 1.28734 118 148 71 2.26017 5 10829 20 9865 4 10655 21 10404 22 9332 3 9499
2989 4.11321 -2.84053 1.79625 106 100 94 0.725345 23 5608 24 5489 25 5092 26 5031 4 7987 22 5473
10505 0.808898 -1.03417 1.15729 101 92 68 1.16021 20 9882 22 9366 4 10662 5 10838 21 9887 23 8111 3 9505 24 5898 26 2554
2988 3.52823 0.199003 1.74011 91 72 53 2.18705 5 10705 20 9207 3 8889 21 9718
10503 1.14217 -1.12743 1.18783 112 89 65 1.206 20 10101 24 8958 4 10904 5 11058 21 10394 22 10536 23 10031 3 9747
2986 1.49523 2.14626 1.82428 79 67 52 2.10321 2 9321 20 8447 3 8879
10502 1.1432 -1.12756 1.18716 115 92 67 0.961974 20 10100 24 8959 4 10905 21 10395 22 10537 23 10032 3 9748
2985 1.61887 2.45287 1.84375 51 45 36 1.03909 2 8507 20 9197 3 8877
10501 0.864895 -0.925121 3.37662 190 183 173 2.35651 24 9900 4 10935 26 8548 5 11095 23 10616 3 9773 25 9150
2984 4.50785 -2.04229 1.92703 191 203 215 1.38447 21 9669 22 9054 23 9059 3 8870 6 11467 24 8730
10500 3.9857 -2.85318 4.17906 63 54 43 1.52274 6 5410 21 4218 23 4593 5 856 24 685 26 519 3 4219 22 7053
2983 3.05263 -1.58882 2.00571 94 95 50 1.07433 4 9178 20 9184 21 9665 23 7761 3 8869 22 9052
10499 5.24215 -4.89364 4.44156 48 50 45 1.27486 21 4401 23 527 24 714 26 646 25 678 5 997 6 1299 7 5911 4 1127
2982 3.16398 -0.463763 2.06206 25 26 21 1.1641 5 10143 3 8866 4 9965
10498 3.29178 -3.47915 3.24723 71 94 43 0.819451 6 5792 23 957 7 9009 5 1370 21 816 22 4802 4 5319
2981 5.93646 -3.04939 2.25356 92 105 60 1.91733 4 9943 24 8704 3 8850
10497 1.45533 -3.34494 2.79771 44 64 21 0.931078 6 1767 7 2021 5 1516 22 980 4 5406 21 4643
2980 3.4717 -2.04348 2.13512 57 58 48 1.57757 20 9699 3 8848
10495 2.94831 -1.16739 2.248 64 67 29 0.63851 6 6291 23 1780 4 2475 3 1974 5 2128
2978 3.70961 -0.655178 2.10368 94 100 59 1.3956 20 9155 21 8767 22 8980 3 8842
10494 2.95536 -1.64623 2.1078 62 69 32 1.45921 6 2610 20 5011 5 2317 3 5134 4 2653
2977 3.70961 -0.655178 2.10368 94 100 59 1.3956 20 9156 21 8766 22 8979 3 8841
10493 3.07003 -1.45484 1.95892 39 44 24 0.842805 6 8936 20 5088 4 2820 5 2479 21 1899 3 2327
2976 5.04942 -4.22821 2.49174 48 63 43 0.736613 4 7770 22 7538 24 5180 25 4873 26 4801 3 8824 21 7302
10492 5.29304 -2.82251 1.85186 75 66 50 1.30823 6 2787 21 1921 23 5506 22 5471 4 2843 5 2498 22 2007 3 5239
2975 3.09866 -1.49212 2.38041 64 74 45 1.71017 21 8729 22 8934 23 8966 3 8818
10490 4.05441 -3.00399 1.64334 50 61 23 0.902206 4 3011 22 2182 5 2682 6 6688 4 6151 5 6007
2973 1.30422 2.40668 2.29921 29 36 28 0.863442 2 8399 20 9125 3 8804
10489 3.92722 -2.91769 1.52472 65 54 43 0.792179 20 5365 21 2244 4 3152 5 2838 6 3134 3 5411
10487 4.91325 1.06226 4.53914 191 207 225 1.15775 20 39 5 4620 22 4394 23 4508 24 437
2970 0.973572 -0.350111 2.39322 38 27 18 0.710386 21 9588 3 8792 22 10411
10486 4.91448 0.843235 4.47391 81 82 82 1.46515 20 4170 5 4688 24 446 26 239 3 780 23 4515 25 255 2 666 22 4455
2969 4.8554 -4.10951 2.88018 28 37 24 0.656525 22 7416 23 7513 24 5083 25 4761 3 8782 26 4712
10484 3.97347 -3.75606 4.37288 62 83 51 1.70652 7 8738 21 6747 5 4879 24 577 3 530 23 396 22 4474
2967 5.5195 -3.07504 2.79896 84 68 57 1.31024 20 9663 21 9566 3 8779 24 8628 25 8022 26 7969
10483 0.933711 -3.59434 2.9175 40 61 25 0.919136 6 5803 30 8550 21 8504 22 7217 23 4916 4 8916 5 5142 7 6245 24 1184
2966 4.62517 -3.83741 2.95983 21 28 18 1.91482 22 7415 23 7512 24 5082 3 8756 21 7138 26 4643
10482 0.796692 -0.817253 2.62465 148 135 117 1.59024 20 6660 21 4611 3 4526 22 939 2 8253 4 5378 5 5183
10481 1.28292 -3.41881 2.70471 35 56 22 0.788886 6 1919 7 6339 23 5006 5 5303 22 4996 4 7570 21 7101
2964 5.03166 -3.99648 3.11831 24 33 22 2.15317 5 9132 24 7188 25 6717 3 8734
10480 3.21658 -1.067 2.33522 138 147 92 0.904353 6 8768 20 4892 3 1800 2 7126 5 5567
10479 3.16718 -1.23926 1.55983 58 65 34 0.883279 6 9166 22 5659 5 6112 21 5612 4 3126
10478 2.67121 -1.07694 1.37111 83 79 55 1.46308 20 7417 22 2599 5 6314 21 5712 2 8717 3 7220
2961 0.80513 -0.898347 2.57301 131 119 104 1.93251 21 9522 3 8726 25 4667
10477 2.79322 -2.21439 1.27946 80 79 44 1.45384 21 5801 22 2618 5 6337 3 7273
2960 0.816445 -0.591588 2.59982 187 180 169 1.30594 4 9833 5 10580 3 8725
10476 1.64178 -3.3168 1.28259 145 144 140 0.607634 22 2702 5 6419 21 5855 4 6529
2959 0.880255 -0.395642 2.61988 130 121 103 1.24627 5 10577 21 10153 3 8723
10475 4.81675 -6.32261 4.5143 231 235 241 1.10966 21 8436 22 8677 6 8395 7 10689 23 8730 4 8858 5 7401 24 8441
2958 2.67896 0.689529 2.97699 64 69 29 1.3349 4 10372 20 9030 3 8720
10474 4.81675 -6.32261 4.5143 231 235 241 1.10966 21 8437 22 8676 6 8396 7 10688 23 8731 24 8442 4 8859 5 7402
2957 2.70491 1.19781 2.96752 47 52 18 0.385769 4 10370 20 9614
2995 3.97926 -2.85355 1.7111 101 91 80 0.798477 4 9270 5 8071 6 10528 20 9237 21 7533 22 7748 23 7820 24 5490 25 5195 26 5033 3 8926
10473 0.157384 -3.60147 3.02328 191 211 222 1.59902 23 7255 5 7410 7 6038 24 4746 30 5692
