# 3D point list with one line of data per point:
#   POINT3D_ID, X, Y, Z, R, G, B, ERROR, TRACK[] as (IMAGE_ID, POINT2D_IDX)
# Number of points: 648, mean track length: 3.88859
1115 1.92565 -0.838838 -0.847033 111 111 86 3.229 34 288 3 505
10372 2.78065 6.99657 -1.37819 127 118 87 0.412083 13 222 14 494 15 567 43 225 12 227 42 316 52 311
2855 0.882886 5.91554 -0.350182 132 150 126 0.321632 9 229 43 116
8631 3.13902 -7.51582 -1.71812 47 44 33 0.654951 34 1079 27 728
10371 0.0666116 -8.37407 -1.63447 107 94 48 1.29758 25 215 26 483 27 235 29 151 30 181 37 722 38 319 28 496 54 318 38 757 39 314 54 776
2854 1.26658 0.895983 -0.427641 207 168 126 3.26138 52 787 8 89
10370 2.45778 2.95941 -1.73271 29 28 22 1.54791 13 319 52 471 12 329 14 587
2853 5.38044 4.11273 -0.0995898 254 254 251 1.33283 52 1083 8 88 42 866
8629 -0.194003 -8.10294 -1.65292 30 30 26 1.68365 28 499 31 481 37 731 27 719 30 451
1112 8.0686 -1.94889 -1.73884 77 83 72 1.0237 4 227 5 233 6 363 32 732 3 496
10369 2.54188 2.94022 -1.73178 25 24 20 0.776466 13 320 52 472 12 330 14 588 11 544
2852 5.31445 4.07893 -0.0814274 188 188 164 1.07445 13 549 50 374 52 532 8 87 42 439
8628 -0.194863 -8.09998 -1.59993 32 31 27 1.2615 28 498 30 581 31 560 27 718
1111 10.0828 -2.07474 -1.74493 66 72 63 0.79563 6 662 32 513 33 611 34 620 48 250 3 495 4 208
10368 1.31726 13.3251 0.350835 105 117 96 1.58448 13 356 14 416 42 445 15 481 43 321 12 384 11 107
2851 5.30214 4.06902 -0.0386326 185 186 162 1.56501 52 529 8 86 42 611
2889 5.36534 4.36903 -1.66123 28 26 21 1.78614 13 769 8 203 52 1061
10367 2.85851 7.05601 -0.924696 121 109 74 1.07925 15 766 42 501 43 364 12 476 13 457 14 464 41 344 52 280 11 339
2850 5.30214 4.06902 -0.0386326 185 186 162 1.56501 52 530 8 85 42 612
8626 -0.311355 -3.59895 -0.933563 157 160 130 2.33229 30 880 27 710
2888 3.76428 5.73145 -1.72454 36 35 27 1.74948 9 403 41 745 8 199 40 355
10366 -0.781341 -8.71576 -1.72352 21 21 17 0.968863 26 221 38 326 31 366 36 246 37 292
2849 4.01151 5.6973 -0.163401 206 198 153 0.242285 9 557 10 677 11 622 8 80
10365 -0.153373 -8.10228 -1.72238 28 28 23 0.942385 30 207 31 364 25 483 26 254 27 240 36 264 37 572 38 583 54 324
2848 4.01151 5.6973 -0.163401 206 198 153 0.242285 9 556 10 676 11 621 8 79
8624 2.9855 -7.34233 -0.78416 244 202 149 1.18339 28 650 33 852 34 1041 54 731 27 689
1107 3.62009 -2.65481 -0.877259 80 79 61 1.45889 4 563 34 257 3 482
2886 -1.97073 -6.28838 -1.40963 26 26 21 0.289345 28 231 54 333
10364 -0.230047 -8.13556 -0.839183 37 36 29 0.7592 31 543 54 532 25 422 26 440 27 476 28 157 29 480 30 414 36 209 37 501 38 224 39 100 31 462
2847 -0.576493 0.614607 -0.501489 111 107 82 1.76078 41 577 8 78
8623 2.99893 -7.25459 -0.772897 248 247 230 1.68935 28 649 33 851 34 1038 38 859 54 730 27 688
1106 3.63728 -2.66586 -0.796264 133 120 65 1.10031 4 831 33 862 34 607 48 227 3 481 5 567 32 718
10363 1.45717 14.0171 -1.90256 69 76 65 1.29556 14 971 15 1142 42 808 12 656 13 739 43 639 52 856 11 715 16 1154
2846 4.14241 5.69934 0.0018638 210 202 156 0.0842725 9 539 8 77
8622 3.01882 -7.29726 -0.774438 247 245 221 2.01338 34 1039 54 729 27 687
1105 4.14711 0.0476378 -0.771058 151 144 97 0.453791 4 163 3 477
10359 2.9595 7.1073 -0.874042 147 133 95 0.40572 15 1134 41 1077 42 894 43 628 52 1121 12 849 13 896 14 966
10355 -0.7068 -8.65482 0.354063 20 20 15 0.980854 38 399 39 356 29 280 31 591 25 338 28 380 54 460 27 391 37 407
10353 -0.144275 -8.12592 -0.68931 24 24 21 0.9507 31 536 38 689 26 649 27 692 28 655 36 309 37 667 54 734
10349 5.35847 4.53469 -0.666416 239 233 180 1.40682 52 820 13 818 42 659 41 1071
10347 -0.274844 -8.15136 0.296493 150 142 102 1.32445 29 778 30 904 31 705 38 1093 39 599
10346 2.48525 6.65136 0.310942 158 147 107 1.84643 14 1072 15 1246 41 1278 13 985 52 1313
10345 2.56305 6.47662 -0.850909 31 30 23 0.753985 15 532 40 280 6 294 13 161 14 146 42 500 43 175 52 227 12 170
10344 -1.20897 3.64935 -0.891082 112 95 44 2.54725 42 299 43 206 41 701 52 294 10 842 14 185 9 613
10343 0.0614938 -8.35491 -1.74538 43 41 32 0.658474 28 497 29 166 30 205 38 322 54 321 27 236 31 143 37 571
10342 -2.86668 4.09511 -1.60288 61 52 33 0.956383 15 357 20 519 44 798 14 552 16 235 10 1197
2863 3.18156 9.73496 -0.328395 41 42 38 0.73429 10 757 40 199 8 129
10338 -1.59479 -8.55981 0.627714 175 161 124 0.582029 29 642 38 932 39 504 26 743 28 747 30 796
10337 -1.70235 -8.59208 -1.62054 93 103 95 2.15457 26 814 39 477 24 1466 30 693 37 924 27 883 28 503 37 725 38 569
10334 -0.97928 4.30417 -1.81998 86 79 58 2.05833 18 1102 14 1059 15 1160 17 1137 14 995 16 1173
10333 -1.19454 3.6685 -1.61322 168 150 85 2.48294 17 1265 18 1146 14 1153 16 1254 11 1331
10330 -1.17468 3.74438 -1.68832 33 31 26 0.744489 17 242 18 573 16 600 11 1047 15 655
10329 -0.153943 -8.12425 -0.866332 26 26 23 1.34529 37 816 38 860 25 786 26 650 27 693 36 405
10326 -1.05822 3.74925 0.471793 144 126 65 0.937144 18 11 41 93 16 17 52 508 17 7 43 309 8 28
2845 3.93688 5.72739 -0.0312442 194 185 140 0.864404 9 68 10 660 11 585 8 73 40 66
2844 -2.65711 -8.33726 -0.0514178 119 112 82 0.556531 29 54 30 355 38 125 39 59 36 60
2843 2.4685 7.19412 -0.0422907 107 103 70 0.805331 9 133 10 204 12 62 14 74 15 68 16 477 42 147 43 103 52 135 8 69
10319 -1.5942 -8.55528 0.627867 171 158 122 1.29942 39 505 54 823 24 1535 26 742 28 746 29 643 36 443 27 600 25 872 30 795 38 931
2839 2.33104 7.24721 0.359293 89 83 51 2.06864 9 38 13 539 14 733
10269 -3.59702 -0.203187 -1.22388 189 154 0 0.845277 44 674 53 834 18 166 19 248 20 122 21 112 45 153 47 222 17 145
9776 -4.21049 6.68191 2.27622 33 30 19 1.62493 42 597 41 52
2259 11.9106 -1.3756 0.746218 84 97 86 2.1163 35 631 48 737 49 77 51 335
9775 -3.691 5.61556 1.99109 30 26 16 0.73886 42 33 41 44
9773 -2.47073 4.40398 1.8149 25 22 13 0.0113552 43 19 41 31
9772 -2.96589 4.71832 1.89752 26 24 14 2.78935 43 297 41 30
9770 -2.50396 4.0772 2.03471 45 40 22 1.50802 43 9 41 20
2253 9.42208 -2.27959 1.21986 117 116 97 1.61213 50 540 6 1088
9769 0.201572 5.79499 2.21753 225 218 193 2.02948 43 924 40 948
2290 4.60252 -0.209055 0.91719 97 93 63 2.29469 7 711 35 978 48 812 5 978
9768 2.30599 3.07867 1.45831 131 121 84 2.23298 52 1521 40 944 43 940
2289 3.79224 3.20269 1.73776 136 121 75 0.128394 8 710 49 887
9767 0.707984 5.12583 2.42303 254 253 242 3.93336 52 1509 40 939
9766 0.443445 2.38649 1.16398 110 99 67 2.52795 42 1247 40 930 43 936
2249 -1.2622 -6.39 1.55375 182 169 128 3.24364 25 865 26 937 25 943
9765 0.445088 2.38971 1.16794 140 127 87 1.07912 42 1248 40 929
2248 0.967477 5.04545 1.53513 180 165 126 2.99841 52 62 6 1075 7 510
2286 5.12752 -0.348973 -1.67317 47 45 29 0.0574913 7 818 6 1167
9763 0.459115 2.38677 2.36881 230 208 161 1.55225 41 1419 42 1203 43 904 40 907
9762 0.444625 2.37222 1.28378 208 195 160 0.265884 42 1156 40 859
2245 0.941752 5.13786 1.55653 170 156 116 2.5775 7 628 40 576 41 511 42 404 6 1074 52 60
2283 2.22352 7.32973 -1.74444 64 65 56 1.25009 7 762 8 693 9 1001 10 1323 6 1162 40 736
9761 3.90955 14.2203 0.728563 169 184 162 0.914377 41 1207 52 1187 40 834
9760 0.415507 2.18104 2.07934 252 249 239 3.881 43 813 40 823
2243 3.07509 2.90736 -1.64261 48 45 33 1.62844 13 1064 6 1055 7 601
9759 0.34847 2.35346 1.20719 198 186 152 1.10732 42 731 40 795
2242 6.86797 -2.04302 -1.68784 66 73 65 1.16943 33 625 6 1051 4 229
2280 5.0125 3.20641 -1.73605 127 123 84 0.447392 50 932 6 1156
9758 0.498998 2.35955 2.37645 178 160 122 3.6187 41 1181 40 739
9757 6.19022 30.9892 0.920065 48 56 52 1.65013 10 1293 42 952
9756 3.8067 13.8327 1.17151 101 114 88 1.1225 8 718 52 949 40 705
2239 2.88784 5.90495 -1.6126 126 109 53 1.66437 7 811 8 694 9 1003 40 737 52 1226 6 1044 41 1173
9755 -0.897936 -4.07955 -0.723257 80 90 76 1.07438 38 537 54 915
2238 2.78096 7.16601 -1.38436 89 80 53 1.70799 7 589 8 517 10 1163 11 392 40 553 6 1042 9 777
9754 0.519566 2.31063 1.20392 197 184 150 1.89511 42 1042 43 815
9753 1.35307 7.3909 -1.75242 76 83 73 0.53823 43 653 40 639
2236 2.51237 7.11777 -1.19785 81 30 18 0.653809 7 587 8 512 9 863 10 1157 11 1003 13 744 14 908 15 1074 16 1152 40 621 42 803 43 637 52 1033 6 1040
9752 0.754253 7.02245 -1.38106 50 55 52 2.06583 43 211 40 623 15 224
2235 2.44495 7.13131 -1.19501 98 34 20 0.985373 7 686 8 604 9 862 10 1249 11 1002 12 783 13 742 14 784 15 942 16 1056 40 683 41 1011 42 802 43 569 52 1032 6 1039
9751 7.1445 38.159 -0.273131 57 65 50 3.16219 42 483 40 605
2234 2.42133 7.16243 -1.15638 110 101 70 1.22172 7 680 8 602 11 1000 16 1055 6 1038
9749 1.50351 4.50986 -1.11281 52 40 33 2.12571 42 910 40 555
2232 2.6772 7.114 -0.952913 37 36 27 1.40325 7 681 8 683 9 938 10 1240 11 1082 40 680 41 1076 6 1031 12 855 52 1017
9748 -0.620169 0.663492 -0.637775 40 37 26 0.944459 52 671 40 554
9746 2.68026 7.10671 -0.988584 18 19 15 0.712125 41 870 52 663 40 534
2229 3.68772 13.1987 -0.816921 108 121 96 1.05533 7 569 8 489 10 989 11 674 12 168 52 615 6 1013
9745 4.67439 15.6147 -0.826515 69 76 63 2.12052 9 853 41 629
2228 6.63323 28.8562 -0.426864 123 137 120 1.05017 7 556 8 354 9 572 40 426 41 279 6 1012
9744 0.428419 2.37365 1.36746 211 198 164 1.71109 43 437 40 482
2227 2.50902 0.223112 -0.544183 155 136 75 0.940529 35 1096 48 846 6 1009
9741 2.56195 6.47542 -1.19347 18 18 14 0.204047 52 309 40 446
2224 6.536 28.4471 -0.0347796 132 149 130 1.27059 7 555 8 476 9 727 10 754 11 291 40 415 41 246 6 1002
2262 11.9272 -1.36724 0.601427 81 92 84 2.04395 33 1219 48 614 6 1107
9740 2.4038 7.20893 -1.20328 75 71 50 0.511299 41 684 42 521 43 380 52 682 40 438
2223 6.71816 30.517 0.486956 38 42 39 1.30441 7 541 8 466 9 725 10 976 11 859 40 516 41 834 6 1001 12 407 42 469 52 565 13 115
9739 2.4977 10.8222 -0.318132 41 44 38 1.08068 41 245 42 184
9737 3.45482 2.90393 1.6853 59 49 24 1.02289 42 392 40 375
9736 -0.156163 3.58468 2.02924 185 177 150 0.316368 52 15 40 373 41 496
2219 2.50408 7.26035 0.0020179 155 147 109 1.13653 7 659 10 1223 11 1065 14 749 15 890 16 1035 41 969 42 764 6 997
9735 -0.300618 7.10518 -1.69765 14 14 11 0.145792 43 247 41 432
2218 3.21125 9.79541 -0.15474 51 53 48 0.818469 9 849 10 1131 40 602 6 996
9734 3.3408 11.1575 -1.59467 82 91 74 0.627279 9 345 41 397
9733 -1.72117 3.75416 -0.823595 81 67 32 2.92231 42 683 52 293 40 285 42 278
2216 7.19393 -0.37412 -0.135162 113 122 115 2.26985 34 1248 49 725 6 984
2254 6.3427 -0.797264 0.582228 50 52 47 1.37591 33 42 6 1092
9732 5.23361 26.9741 -0.413488 25 26 23 1.68208 7 669 52 812 9 736
9731 5.02424 20.4686 0.250793 8 9 7 0.31165 41 247 40 194
2214 0.696778 0.708893 -0.287497 212 219 199 1.90506 8 33 6 981
9729 2.39933 11.6465 0.0664797 24 26 25 0.20534 16 84 41 196
2212 3.72189 13.3681 0.670359 186 200 175 1.77907 7 655 52 129 6 979 41 567
9728 2.72647 -7.20052 0.0302034 202 179 139 2.98091 37 616 38 405
2211 4.72508 20.8538 1.28389 104 117 94 1.76426 7 651 9 828 10 1118 11 960 12 722 41 807 42 618 52 786 6 977 13 690 40 498 40 581
9727 3.31931 2.91052 1.54476 82 67 36 2.10422 42 18 40 19
2210 12.3508 -1.48196 0.686416 88 106 96 2.57689 48 613 49 349 6 975
9726 3.19367 2.72107 2.54557 73 62 31 0.455366 43 4 40 11
9723 -2.64291 -4.82067 -1.38641 26 24 18 2.47807 38 1204 39 621
9722 -1.91114 -7.79637 -0.368469 69 78 65 1.94696 54 1013 39 517
2205 -1.1995 -6.27332 1.3005 152 141 94 1.57234 25 543 26 23 29 273 27 14
9721 -0.655295 -3.55224 2.12775 209 192 154 1.06512 54 958 39 497
9720 -2.34395 -9.17561 -1.91754 62 63 58 1.47255 30 700 54 1044
2203 0.989437 5.0777 2.18476 230 213 169 2.12454 43 441 6 920 7 506
9717 -3.05841 -12.6985 -1.55203 88 99 94 0.619493 30 820 36 233
2200 4.80759 -0.604564 -1.62431 72 63 38 0.873532 48 697 49 828 6 900
9716 -1.16247 -6.29692 1.52671 161 148 106 0.129707 36 173 39 217
2199 2.48663 3.67424 -1.66443 40 39 31 2.01371 7 696 10 1266 6 894 8 626 9 958 8 524
9714 0.950813 5.07651 1.8971 201 185 147 0.805119 40 22 52 51
2197 5.23603 4.12245 -1.6482 38 37 28 2.06498 7 598 6 883 50 498
9713 1.9337 5.49328 2.24006 225 216 193 1.18343 40 926 43 950
9710 1.17996 5.01875 2.41687 253 249 238 3.56072 43 938 52 1510
9709 0.790978 -5.69366 1.03593 128 111 56 1.34699 54 1430 38 1345
2192 4.50422 17.7882 -1.70972 57 63 57 1.40799 7 578 8 503 9 753 10 1029 11 700 40 536 6 874 41 680 52 269
9708 -1.50431 -6.20635 1.35268 118 104 58 1.31657 39 750 38 1344
2191 2.64325 7.16158 -1.09821 140 133 98 0.639523 7 583 8 509 6 872
9707 -0.651127 -3.51587 1.24383 199 187 156 0.832869 39 674 38 1253
2190 2.64668 7.1253 -1.00343 128 121 86 1.08796 7 581 8 510 9 860 10 1155 11 990 12 771 40 611 41 1012 6 871 13 733 42 801
9706 -0.61363 -3.51552 2.34856 138 123 80 1.50505 39 671 38 1250
2189 2.5325 7.14818 -0.998992 135 127 88 0.695094 8 506 12 645 15 763 41 884 6 870
9705 -0.940668 -9.21974 -1.88097 121 128 123 3.17448 25 1122 38 1242
2188 2.6624 7.17004 -0.943256 132 126 91 1.67663 7 417 8 490 9 747 10 1015 11 706 40 531 41 868 52 848 6 869 12 467
9704 2.42805 3.62488 -1.36598 51 48 36 0.993529 42 1038 43 812 52 1156
2187 2.48212 7.11429 -1.05845 72 32 19 1.14912 7 582 8 507 9 859 10 1154 11 989 12 770 13 734 15 940 16 1054 40 618 41 1009 42 701 43 567 52 851 6 868 13 616 43 483
2225 3.19461 9.8921 -0.20054 68 70 63 1.04724 7 731 9 930 10 1234 40 671 6 1006
9703 -4.57023 -24.34 1.91787 250 249 237 1.45676 28 1172 39 654 38 1171
9702 0.816554 9.81765 0.314321 142 161 133 3.56623 12 1048 52 1084
9701 0.482624 -7.26284 -1.74957 41 38 28 0.208375 39 617 38 1144
9700 3.10394 -7.40617 -0.698154 243 241 221 2.73443 54 1110 38 1122
2221 2.4666 7.16171 -0.00538332 150 143 103 1.02757 9 843 13 804 43 549
9699 2.80331 -6.85773 -0.683234 234 199 159 0.887555 54 899 38 1121
9698 -1.73441 -15.7374 -0.0489941 126 144 121 2.68133 28 1042 38 1109 29 785
9697 -1.37087 -13.4973 0.570352 105 119 105 1.69982 28 1035 54 1076 38 1096 27 939
9696 0.840159 3.44367 -0.0910177 163 170 140 0.644312 16 1196 40 753
9695 -0.591697 -3.55073 2.33727 163 148 116 1.55809 39 548 38 1017 54 1146
9694 -5.27352 -5.5721 -0.722194 49 48 31 0.292286 54 1028 38 986
2177 2.67537 8.37474 -0.123717 64 66 59 2.73687 9 977 40 596 6 827 7 733 8 675 9 978
9693 -2.66154 -4.82588 -1.2935 15 16 12 3.23423 39 329 38 911
2176 3.12899 9.8159 -0.113573 64 67 59 0.442177 7 546 8 470 9 730 40 511 6 826
9690 -3.81093 -4.64268 -0.459412 153 141 99 0.70231 24 647 39 461
2173 3.66862 13.1404 0.171482 131 146 133 1.11946 7 384 9 550 10 715 40 406 6 821
9689 -1.08442 -4.34334 -1.28737 100 100 90 0.13912 39 340 38 768
2172 3.86101 14.062 0.276528 165 186 162 1.30472 7 543 8 469 9 719 10 714 40 509 6 820 11 119
9688 -2.78161 -11.0878 -0.503788 64 71 60 0.794585 54 889 38 693
9687 0.448556 2.37724 2.04932 226 205 164 3.56809 40 478 52 752
9686 0.448556 2.37724 2.04932 226 205 164 3.56809 40 479 52 753
2169 2.26069 7.16906 0.359413 26 26 21 0.813868 7 363 8 316 9 534 10 942 11 830 40 497 42 606 6 785 15 469 16 442 14 408
9684 -0.646595 -2.7888 -0.816486 58 63 55 0.423534 54 308 38 567
2167 3.80366 13.3269 0.897142 155 166 140 1.64703 7 523 8 312 52 114 40 393
9682 -5.39887 -5.38187 -0.280543 39 36 33 2.71947 22 57 54 112 38 455
9681 -3.34077 -4.10973 0.673722 78 68 44 0.210692 28 14 37 399
2164 0.949119 5.08164 2.17091 206 187 144 0.617777 40 485 41 924 42 737 43 528 6 731 7 504 8 538 52 757
2202 -2.64268 -4.20623 -1.74461 49 46 36 0.842625 28 545 29 534 27 332 54 658
9680 -2.52094 -4.26875 0.759839 115 96 45 0.105836 39 219 38 388
2163 -1.12833 -6.27885 2.38767 158 146 117 0.942692 24 1382 25 706 26 733 27 916
9678 0.731429 -7.64852 -1.73151 22 21 16 0.235367 39 189 38 352
9677 -3.20124 -7.75772 -1.65599 17 16 13 0.558271 54 613 38 335
2160 0.0756106 -2.35036 -0.821854 26 26 20 0.808256 29 159 54 363
2198 7.40464 -0.348701 -1.72978 55 40 22 1.75616 34 1188 6 888
9676 -3.53864 -17.843 -3.27531 68 70 63 2.83323 28 227 39 486
9675 4.47572 -2.57831 -1.61164 21 21 18 2.49492 31 165 33 368 4 284
9674 -5.10707 -5.53132 -1.12301 27 28 20 0.201145 54 300 38 293
9671 -5.37295 -5.42218 -0.664376 50 49 34 0.240701 54 204 38 211
2154 2.24222 7.30307 -1.70575 25 24 20 1.03876 7 215 8 389 10 461 6 682 40 321
9670 -5.4716 -5.36763 -0.482434 28 27 22 0.121831 54 165 38 183
2153 -0.782401 -8.71543 -1.72378 22 22 18 0.686012 25 184 36 247 54 326 37 291
9667 -5.43152 -5.5085 -0.437798 31 30 24 0.270702 54 158 38 175
2150 2.8697 6.84738 -1.75333 38 35 27 1.95895 7 595 8 521 9 880 10 1178 40 640 6 666
9666 -5.43152 -5.5085 -0.437798 31 30 24 0.270702 54 157 38 174
9665 -5.53502 -5.52987 -0.247479 18 17 15 0.189285 54 110 38 134
2148 2.45289 7.13356 -1.3387 136 121 85 0.407816 7 435 8 386 10 1050 11 725 40 449 6 655
9664 -2.54005 -9.14721 0.167979 90 94 80 2.36391 27 949 30 739 39 372
2147 2.47844 7.24021 -1.29236 124 112 82 1.96553 7 432 8 385 9 774 10 1047 11 722 14 492 40 551 6 654 13 467
9663 -1.55502 -14.7422 1.11697 83 95 74 0.456763 28 38 39 226 38 72
2146 2.44332 7.1666 -1.28668 117 103 75 0.632512 7 431 8 384 9 773 10 1046 11 723 40 550 6 653
9662 -2.66611 -4.11481 0.0844251 108 90 42 0.337466 39 36 38 62
9661 -2.58736 -8.65959 1.77835 82 71 37 2.25605 54 37 38 54
9660 0.416313 2.37595 1.17191 150 139 95 1.13991 42 390 52 20 43 290
2143 2.97444 7.11593 -0.940379 154 141 104 0.809165 10 808 11 892 12 650 13 618 15 931 42 675 43 477 52 668 6 646 14 658
9659 -1.40165 -3.52262 1.71429 201 195 178 2.56683 54 1475 37 1276
2142 2.65445 7.11555 -1.04368 30 30 23 1.11692 7 419 8 377 9 757 10 1034 11 891 40 439 41 688 42 525 52 665 6 645 12 649 13 195
9658 -0.33232 -3.438 1.1292 146 134 94 1.12477 54 1465 37 1269
2141 2.68129 7.14116 -0.924797 35 34 26 0.650436 7 418 8 368 9 746 10 1016 11 890 12 468 40 532 41 659 52 661 6 644
9657 -0.927872 -6.31926 2.42726 252 246 233 2.23579 38 1355 54 1458
2140 2.45942 7.14508 -1.10252 108 100 69 0.883108 7 190 8 162 9 600 10 830 11 702 12 464 13 450 40 294 41 682 42 288 52 275 6 643
9656 -2.24315 -2.9193 -0.203349 89 76 52 0.828658 54 1411 37 1252
2139 2.48292 7.12801 -1.09444 38 34 20 0.434749 7 420 8 378 9 601 10 1032 11 703 12 465 13 449 14 476 40 437 41 683 42 523 43 376 52 664 6 642
9655 0.0146559 -4.20961 2.15269 225 219 201 2.97847 54 1442 37 1245
9654 -5.59358 -5.88593 -0.0702706 48 43 32 0.351185 38 1317 54 1412
9651 -2.3331 -4.44149 -1.34792 64 58 38 1.1228 29 876 54 1287
2134 4.69978 3.95597 -0.836363 49 47 36 2.11001 7 407 6 618 42 794 52 627 42 506
9650 -3.76633 -14.5026 -1.34242 93 107 89 1.0084 26 1138 27 1195 37 1139
9649 -0.583683 -3.53892 1.22702 196 185 150 1.78661 38 1209 54 1299
9648 -0.711147 -3.58117 1.36409 175 165 127 0.763685 54 1300 37 1126
9647 -0.594809 -3.52993 1.31707 180 167 130 2.35286 38 1252 54 1298 37 1125
2130 4.58471 17.7666 0.08766 116 132 117 0.968061 7 383 8 103 9 564 10 278 11 212 40 418 41 248 6 601 12 119 52 169
2168 3.30034 10.3087 0.695736 21 22 18 2.34106 7 525 8 661 10 1347 6 784 40 707
9646 -5.10678 -5.62344 -0.99053 60 60 35 2.28667 38 1130 54 1270 37 1107 54 1196
2129 5.06424 20.3823 0.200824 78 87 77 1.64116 7 105 8 97 9 222 12 118 40 195 6 600 42 187
9645 -5.10678 -5.62344 -0.99053 60 60 35 2.28667 38 1129 54 1269 37 1106 54 1195
9642 1.39665 -3.75297 2.3259 88 73 39 2.54295 54 1 37 1062
2125 2.5469 3.76061 -0.309221 222 215 167 0.598244 7 117 8 678
9641 -1.18765 -6.29227 2.1673 156 142 103 0.811325 39 591 37 1002
2124 2.55217 6.45967 -0.137153 24 23 18 0.954357 8 72 10 721 40 136 41 588 42 636 52 571 6 575 12 578
9640 -1.18765 -6.29227 2.1673 156 142 103 0.811325 39 590 37 1001
2123 3.22896 9.82609 -0.0996565 63 66 57 0.512214 7 388 8 343 9 565 10 718 40 409 6 574
9639 0.736125 -5.44647 -1.28224 28 27 21 3.01232 39 482 54 934
2122 3.06504 9.64594 0.141369 17 18 15 1.32663 7 375 8 326 9 551 10 190 40 408 6 572 11 122
9638 -2.6575 -4.81638 -1.28773 10 11 8 0.340872 54 939 37 930
9637 -1.15021 -6.28518 2.22618 216 196 146 1.70378 38 930 39 430 54 813 37 862
9636 0.816786 -7.13244 -1.62556 23 22 18 1.31133 39 490 37 846
2119 6.31125 28.0226 1.30841 92 104 85 1.34087 7 372 8 59 9 127 11 608 6 565 10 182 40 117 41 583
9635 2.43467 8.01929 0.0186916 97 111 98 3.8215 41 968 52 541
2118 -1.25731 -0.377216 -0.53716 34 35 31 1.85448 7 381 49 924
9634 -1.23657 -6.59212 -0.140867 93 104 85 2.46081 38 818 37 783
2155 2.17889 7.15447 -1.76798 45 45 38 1.21864 7 450 8 390 6 683 40 559
9633 -2.57475 -4.26937 0.0179117 104 88 40 0.34622 38 933 37 752
9632 0.451951 2.3824 2.13919 215 195 146 0.757501 40 652 41 1040 42 847 43 597 52 1071
2115 29.4152 -4.44337 1.61914 68 78 70 1.66942 32 426 35 91 51 98 49 96 1 97
9631 0.451951 2.3824 2.13919 215 195 146 0.757501 40 651 41 1039 42 846 43 596 52 1070
2114 13.4266 -1.82553 0.604133 109 123 113 1.72286 49 79 6 534
9628 -0.962846 -7.0323 -1.19251 52 56 52 0.301265 38 881 37 715
9626 -5.10625 -20.9761 -0.105812 65 73 60 0.701347 38 161 37 662
2109 2.53165 15.8292 1.12315 233 240 232 1.03104 42 103 6 521
9625 3.17986 -7.08537 -0.327342 199 163 101 0.926049 38 829 54 707 37 656
9624 -0.832443 -4.08026 -0.38463 100 112 97 0.757662 38 654 37 651
9623 -1.86289 -7.68921 -0.210172 147 169 146 0.0198463 27 447 39 451
2106 2.09475 -0.789681 -0.0995626 54 57 48 2.43258 35 610 6 511
9622 1.92331 -5.25456 1.56756 145 128 83 1.3897 27 1269 31 525
9621 0.51214 2.30616 1.204 197 185 149 0.570389 40 653 41 1183
2104 0.91566 4.92042 1.2629 163 150 109 0.327688 10 19 12 358
9620 -0.652625 -3.55328 1.29432 254 254 253 1.30877 39 428 54 809 37 596
2103 0.932129 4.92799 1.26743 158 148 106 0.0676041 11 10 13 4
9619 0.443777 2.37073 1.31488 254 255 255 0.117066 41 918 42 733
2102 -1.16611 -6.31129 1.30958 151 140 93 1.04022 26 354 27 12 29 13
9618 -5.06244 -5.52892 -1.25207 16 16 13 0.909555 38 575 37 553 54 600
2101 0.901352 4.80532 1.21376 157 146 106 0.179163 11 11 12 357
9617 -5.08756 -5.62489 -1.10438 45 46 28 2.52813 38 290 37 545
2100 -1.1664 -6.31027 1.31087 153 142 95 1.5063 26 355 27 11 29 12 30 330
9616 2.71388 -6.47797 -0.969202 28 26 21 1.28643 38 529 54 281 37 524 27 215
2099 0.934161 4.98111 1.29014 157 145 99 1.4917 10 20 13 3 16 435 43 51 8 25
9615 -3.18561 -4.01684 -0.735098 75 63 31 1.47541 38 520 54 544 37 516
9614 2.94075 -6.66544 -0.800052 250 249 237 1.43568 38 504 54 559 37 494
2097 -1.16663 -6.2396 1.83119 237 231 188 2.36979 25 18 26 15
2135 5.21415 3.98212 -0.825825 213 244 231 0.0806302 50 700 6 621
9613 2.9908 -6.70252 -0.817742 130 123 79 0.889298 38 503 54 558 37 491
2096 0.866985 4.86265 1.78914 232 218 178 1.47985 7 11 6 478
9612 -5.20562 -5.6432 -0.644034 68 61 45 0.783036 38 499 54 527 37 485
2095 0.866985 4.86265 1.78914 232 218 178 1.47985 7 12 6 477
9611 3.17363 -7.21614 -0.39594 206 200 201 0.994717 38 140 54 171 37 462
9610 -5.50996 -5.71908 0.107988 81 76 61 0.593372 38 402 54 465 37 414
2093 0.988238 5.08306 2.18295 224 206 163 1.34418 40 487 42 595 52 759 6 474 8 441
9608 -0.679741 -3.57233 1.17061 152 141 105 0.209957 54 438 37 390
9607 -0.00261989 -0.86574 -0.479707 80 71 38 0.673185 54 817 37 386
2090 1.00161 5.06307 2.4006 162 145 104 1.51467 40 377 41 503 42 396 43 296 6 470 7 343 8 301 52 491
9606 -0.668017 -3.55468 1.38074 201 187 144 0.146855 39 350 37 384
2089 3.75289 3.3862 -3.08618 185 182 142 2.26495 8 285 6 452
9603 -0.640877 -3.56269 1.38353 203 189 145 2.09108 38 10 54 437 37 382
2086 -2.66464 -4.23146 -1.73993 73 67 53 1.10219 28 544 29 533 27 310 54 656
9602 -0.640877 -3.56269 1.38353 203 189 145 2.09108 38 11 54 436 37 381
2085 -2.66464 -4.23146 -1.73993 73 67 53 1.10219 28 543 29 532 27 311 54 655
9600 -2.10241 4.71444 -1.25101 26 23 13 2.72071 9 431 41 426
2083 1.77844 -0.0579349 -1.26356 136 108 65 0.933138 35 1121 6 405
9599 -0.602569 -1.45727 -0.702184 76 70 46 0.950264 38 369 54 627
2082 2.99419 2.85753 -1.7522 85 79 55 2.55056 12 543 13 528 8 250 52 749
9598 -2.63657 -5.14088 -1.40046 10 11 8 1.95334 38 361 37 350
2081 2.93283 2.82417 -1.74827 109 102 67 0.432932 7 463 8 527 6 404
9597 0.466987 -7.60063 -1.74295 50 47 34 0.66778 39 334 54 362 37 330
9596 1.18414 -12.3618 -2.5667 45 42 31 1.60892 38 355 37 325
2079 2.52538 3.01643 -1.76172 64 60 44 2.11795 6 402 11 808
9595 0.85977 -7.65594 -1.72599 21 21 16 0.382062 39 333 37 324
9594 -2.66123 -4.10816 -1.07642 86 70 34 1.20672 38 304 54 309 37 314
2077 2.35436 3.2552 -1.71188 38 36 28 0.882879 8 241 6 398
9593 -2.61414 -4.73271 -1.23694 88 79 51 0.93894 54 619 37 313
2113 9.58028 -0.942108 0.279265 134 154 145 0.977926 33 766 34 105 6 532
9591 -1.92089 -9.39845 -1.103 47 53 46 3.27459 39 401 37 250
2074 2.86184 5.92381 -1.71577 27 26 21 1.47013 7 441 9 398 10 484 11 763 12 272 40 467 52 367 6 373 13 254
2112 3.19812 2.98817 0.0586149 102 100 73 0.63575 7 66 6 526
9589 -5.99147 -31.8502 -2.38511 108 122 107 1.5705 25 149 26 175 36 85 54 263 37 226
2072 -0.236412 -0.783819 -0.659414 40 40 34 2.40746 5 226 27 308
9587 -8.01404 -41.6982 -0.560239 169 193 162 0.705831 26 116 30 561
9586 -5.28731 -5.61477 -0.592697 45 42 31 0.657023 38 205 54 526 37 166
9585 -2.23877 -10.7605 -0.421335 63 74 61 0.244764 39 519 37 151
2068 2.86834 5.94559 -1.64743 31 30 23 0.531858 7 440 10 1059 6 346
9583 3.19274 -7.00801 -0.396981 211 203 206 1.20669 38 459 54 168 37 135
2066 2.88689 6.6637 -1.71444 22 22 18 1.06179 7 219 8 195 9 618 10 863 11 431 40 339 6 344
9582 3.19274 -7.00801 -0.396981 211 203 206 1.20669 38 458 54 167 37 134
9581 3.18453 -7.05035 -0.333172 237 234 223 1.20303 38 460 54 113 37 133
2064 2.91813 7.10406 -1.52052 72 24 14 2.59355 7 590 10 1171 11 732 6 342 40 694
9580 -5.44735 -5.57191 -0.318867 14 14 12 0.762095 38 131 54 152 37 126
2063 3.32843 11.4205 -1.91186 51 54 49 0.95149 7 211 52 334 6 337
9579 -5.40269 -5.6265 -0.371684 45 41 36 0.511814 38 173 54 153 37 124
2062 9.64384 -0.951625 -1.66698 45 40 28 0.373375 33 277 6 331
9578 -6.72883 -34.6757 0.974828 77 81 70 2.92954 25 363 27 827
2061 9.63745 -0.900746 -1.62183 33 35 31 0.191949 33 606 6 328
9577 -6.13666 -32.1255 0.903424 38 42 35 0.875808 26 78 36 189 54 126 37 105
9575 2.79853 -7.3026 -0.201475 183 139 108 2.80731 38 432 37 96
2058 2.77103 7.14925 -1.31309 59 53 34 0.470845 7 203 8 181 9 364 10 449 40 312 6 319 11 391
9574 3.17493 -7.19714 -0.145621 162 172 246 0.653792 38 430 54 89 37 93
2057 3.3707 11.4518 -1.57022 88 98 79 0.719861 7 200 8 175 9 344 10 426 40 291 41 681 52 304 6 317
9573 -5.44046 -5.78603 -0.0465984 52 47 34 0.0648227 38 106 37 88
9572 -5.41295 -5.86614 -0.0279804 36 37 23 0.600545 38 103 54 79 37 87
9571 -5.41295 -5.86614 -0.0279804 36 37 23 0.600545 38 104 54 80 37 86
2054 1.02841 5.79868 -1.02538 81 91 77 2.9305 43 369 6 310
9569 -1.99114 -10.6989 0.426154 254 255 253 1.16312 38 96 54 66
2052 4.69946 19.0501 -1.75485 65 73 66 1.10902 11 361 41 363 52 656 6 309 42 519
9568 -5.50365 -5.70486 0.0871897 74 67 28 0.376737 38 80 54 82 37 71
2051 2.88744 7.04387 -1.03743 78 23 12 0.77235 11 709 12 477 42 293 52 670 6 297
9567 0.619937 7.60518 0.406655 107 122 104 0.182925 41 146 52 104
2050 2.98988 7.09834 -0.974178 105 90 47 0.565879 7 193 11 708 40 435 52 282 6 296
2088 1.96155 0.295224 -1.73561 129 111 67 0.323297 7 489 6 445
9566 2.76015 -6.62575 0.241779 186 181 140 0.187189 38 59 37 52
2049 2.77075 7.12331 -1.09068 79 70 50 0.44493 9 352 10 434 40 298 43 201 6 293
2087 1.96155 0.295224 -1.73561 129 111 67 0.323297 7 488 6 444
9565 -3.15286 -3.98385 0.104296 79 66 31 0.860191 54 448 37 46
2048 2.68709 7.08127 -1.10543 47 45 34 0.935545 7 192 10 433 41 376 6 292
9564 -1.1673 -6.29132 1.89647 225 214 182 0.459215 38 39 39 25 37 31
2047 2.65832 7.12906 -1.08459 40 40 32 0.637709 13 454 6 291
9563 -0.627506 -3.55438 1.15544 119 110 78 2.24669 38 20 37 18
2046 2.73145 7.11922 -1.03122 40 37 26 0.282844 9 351 10 432 6 290
9561 -1.98856 -2.16049 1.00792 44 38 24 0.445261 54 659 37 11
2044 2.6118 7.17791 -1.11751 94 87 58 0.737868 7 191 8 166 9 348 10 831 11 704 12 473 13 453 15 547 40 440 41 686 42 526 43 381 52 666 6 288 14 479
9560 -2.00845 -2.17114 1.03031 98 81 35 0.456751 54 433 37 10
2043 2.50772 7.12533 -1.08859 108 101 68 0.821228 8 163 9 346 10 429 11 367 12 466 13 452 14 477 15 785 41 370 42 524 43 378 52 277 6 287 16 756
9559 0.460421 2.37245 2.0853 251 248 236 1.01854 40 371 52 2
2042 2.83846 7.2043 -0.951774 122 112 78 1.57058 7 423 10 402 40 535 43 366 6 286
9556 -1.18468 -6.38391 2.09063 207 193 157 1.70384 37 1284 39 777 36 689
9554 -0.978315 -5.18692 1.85585 251 248 235 2.85677 39 756 36 675
9550 -0.656461 -3.55484 2.17538 239 229 194 1.1527 37 1195 39 703 36 631
2033 2.56054 6.47396 -0.756083 63 58 42 0.970987 10 398 11 676 12 437 13 422 40 261 41 658 42 499 52 226 6 246 9 329 14 463 15 733 43 362
2071 2.90026 6.13804 -1.71566 26 25 20 1.56743 7 220 9 630 15 328 42 354 6 371 13 253 40 466 41 446
9549 -0.656461 -3.55484 2.17538 239 229 194 1.1527 37 1194 39 702 36 630
9548 -2.61949 -8.50544 -1.57536 128 115 81 2.40696 37 1185 38 1301 36 626
9547 -2.61949 -8.50544 -1.57536 128 115 81 2.40696 37 1186 38 1302 36 625
2030 2.56213 6.47815 -0.629066 47 45 34 0.562538 9 302 10 782 11 659 12 426 13 406 40 259 41 630 42 484 52 224 6 243 43 352
9546 -0.833031 -8.43814 -1.58245 99 110 103 1.12116 37 1148 36 623
9544 -0.651321 -3.54109 1.25797 198 186 153 1.12981 54 1327 36 607
2027 1.16004 9.30083 -0.792524 39 43 38 2.66157 52 1000 6 235
9543 -0.600016 -3.58687 1.34845 166 157 122 0.890602 37 1166 36 605
9542 -0.613949 -3.53289 2.36296 153 131 85 1.02902 37 1164 38 1249
2025 7.66596 37.3818 -0.818518 27 28 26 1.51486 41 278 42 208 6 225
9541 -0.70781 -3.50829 1.22404 194 182 149 0.294994 37 1127 54 1301
2024 4.647 -1.74488 -0.682783 50 61 58 2.31989 51 178 6 223
9540 -3.67028 -6.82555 -1.61453 75 64 30 1.45551 54 1215 36 539
2023 9.58556 -0.93822 -0.58452 121 136 128 1.2746 33 821 34 179 6 218
9539 -0.65238 -3.54428 2.34876 231 208 162 2.25761 37 1000 54 1147 37 937 38 1018
2022 2.51607 0.218022 -0.543373 147 129 65 0.23553 48 190 6 215
9536 -2.61131 -14.1717 -1.07195 22 23 22 2.08012 39 110 36 462
9535 -5.28552 -22.4545 0.360407 139 161 140 1.61662 25 886 27 446 37 648 54 714
2018 6.63724 30.4259 0.0147548 71 80 67 1.08089 7 129 8 121 12 134 6 198 42 191
9534 -5.63297 -24.2604 0.510837 80 93 80 0.971827 25 885 37 646 54 498 36 450 27 442 28 99
9533 -0.655272 -3.55257 2.1287 201 184 145 0.774854 37 743 36 434 38 927 39 496 54 959
2016 5.41784 4.59876 -0.296069 245 246 236 0.991129 7 125 41 825 6 184 42 640 52 809
9532 -0.679976 -3.51071 2.36293 151 137 102 1.55021 37 856 38 926 36 433
2015 2.40287 3.59186 -0.193578 197 187 145 2.05983 40 107 6 181
2053 -0.720391 1.04135 -0.671128 79 88 75 1.08706 7 185 8 176
9531 -3.17132 -6.87833 -1.71818 11 11 9 0.33825 38 918 36 431
2014 3.92584 5.72903 -0.203096 196 186 143 1.01013 40 514 6 180 10 965 11 844
9530 -1.83746 -13.4546 -1.92694 114 129 124 2.61151 25 803 39 572 36 417
2013 3.92584 5.72903 -0.203096 196 186 143 1.01013 40 513 6 179 10 964 11 843
9529 -0.95117 -4.94037 -0.774113 14 14 13 0.875504 37 696 39 119
2012 2.95106 7.04191 -0.0698505 128 112 54 0.345415 11 133 6 178
9528 -5.59951 -24.1064 0.99098 84 94 79 1.31627 25 736 37 644 36 386
9527 -1.11935 -6.30122 2.35208 253 250 238 1.06322 37 745 38 778 39 429 54 812 36 366
2010 2.48847 7.19161 -0.0613687 151 144 105 0.490418 7 116 8 71 9 555 10 720 11 612 12 396 13 360 14 420 15 480 16 482 40 134 41 206 42 150 43 108 52 137 6 177
9526 -0.897662 -4.97901 2.43852 198 185 141 3.75875 39 498 36 363
2009 2.48847 7.19161 -0.0613687 151 144 105 0.490418 7 115 8 70 9 554 10 719 11 611 12 395 13 359 14 419 15 479 16 483 40 133 41 205 42 149 43 107 52 136 6 176
9525 -0.664534 -3.53744 2.07425 247 244 234 1.93935 54 434 36 360
9524 -2.2127 -4.51996 -1.26832 9 9 7 1.33069 38 919 36 358
2007 2.45435 7.2002 -0.061892 151 144 105 0.525318 7 114 8 68 9 135 10 200 11 126 12 69 13 70 14 77 15 478 40 131 41 204 42 144 43 106 52 134 6 175
9522 -0.805957 -8.72328 -1.12484 58 65 58 0.733374 39 120 36 325
2005 2.45261 7.19623 -0.062162 151 145 106 0.627362 7 113 8 67 9 134 10 201 11 125 12 68 13 69 14 76 15 477 16 478 40 132 41 203 42 143 43 105 52 133 6 174
9521 0.530628 -2.48485 -0.523645 113 116 75 1.39072 54 1480 36 306
2004 2.26693 7.35774 -0.110741 32 32 28 0.786343 7 386 8 471 6 173
9520 -1.07818 -4.28736 -0.330249 95 104 89 2.09081 38 441 39 46
9514 -3.10564 -7.02861 -1.73646 33 31 23 0.666196 38 357 36 265
1997 4.96318 19.8032 1.24903 67 75 61 0.815957 7 75 10 99 11 54 40 59 6 130
9512 -0.755775 1.66482 -0.844056 115 116 106 2.42641 6 336 14 809
9511 -2.36979 -8.51725 -1.19888 85 99 87 0.529028 39 290 54 588
1994 -2.98929 -19.1698 1.24164 226 245 238 1.12588 26 51 27 28 30 343 54 62
9510 -5.76946 -31.0988 0.834715 69 82 70 1.70112 25 362 39 253 36 188 30 540
9509 -1.32986 -6.41495 1.27895 135 124 89 1.96121 37 401 36 178
1992 -0.848558 1.26605 -0.344135 157 153 144 2.40437 41 128 6 125
9508 -0.340913 -3.55212 0.551179 134 119 68 0.198997 39 28 36 176
1991 6.80514 34.2535 2.41254 247 249 249 2.3929 16 462 6 124
9507 -1.20073 -6.27871 1.52366 154 140 97 1.27946 38 44 36 175
9506 0.933366 5.08542 1.53793 168 153 114 1.7506 40 380 42 405 52 61
9505 0.969567 5.09301 1.92373 240 234 216 1.14978 16 678 52 52
9504 -0.736609 -3.50763 1.18694 179 171 144 2.91681 37 598 36 165
9503 -0.639842 -3.55382 2.08179 248 244 234 1.51612 37 380 38 603 39 344 54 660 36 164 54 805
9502 -3.81322 -6.86702 -1.74639 9 11 8 0.211296 37 352 36 154
1985 2.21367 7.30966 0.461855 36 34 30 1.50092 42 92 52 110 6 89 11 42
9501 -3.16871 -6.44738 -1.66073 27 26 20 0.487403 38 599 36 150
1984 3.23847 10.3653 0.745346 146 151 125 0.354194 12 34 6 88
9500 0.551095 -7.62884 -1.74543 46 43 31 0.0789342 38 597 36 137
1983 1.99162 7.50805 0.425804 173 191 169 2.53803 9 36 40 386 6 87
9499 -3.72705 -6.8112 -1.62872 5 7 3 0.225347 37 347 36 131
1982 0.546323 7.63924 0.493857 50 47 35 1.61864 42 604 52 100 6 77 7 50 9 703 41 552
9498 -3.05897 -7.04199 -1.62691 98 82 43 3.76967 54 938 36 130
9497 -3.14139 -7.67729 -1.71442 15 14 11 0.913015 54 338 36 128
9496 -3.15225 -7.7643 -1.74194 33 31 24 0.367685 37 335 39 327 54 339 36 127
9495 -0.798862 -8.70387 -1.70527 87 95 88 0.420583 54 325 36 118
1978 -1.20015 -6.28678 1.30278 142 130 89 1.21186 29 272 37 36 26 24 27 13 39 30 24 14
9494 -1.03593 -5.29695 -0.926354 57 64 57 1.10147 29 128 54 758
1977 1.36425 5.13013 1.71219 197 182 128 1.93596 52 498 15 688 43 299
9493 -9.09426 -30.8954 -3.28173 56 63 51 0.862073 54 762 36 103
1976 1.93685 3.05614 1.52674 147 129 76 1.89158 52 28 6 12
9492 -5.16413 -21.5615 -1.77116 35 38 35 1.0324 25 156 38 264 36 93
1975 0.576122 5.20375 1.67407 180 163 114 2.73744 41 68 52 59 6 11
9491 -1.53254 -9.64885 -1.07782 73 83 76 2.18202 25 430 31 333
9490 -5.51993 -22.542 -0.770624 78 87 75 1.54879 25 140 38 495 36 76 28 436
1973 0.934529 5.08289 2.148 247 244 224 1.34741 41 39 43 27 6 4 7 5 8 5
9489 -0.039783 6.9556 -0.699924 175 162 124 0.529559 7 151 8 138 16 126 17 71
1972 -1.17034 -6.30414 2.14564 251 249 239 0.208529 24 554 25 8 27 3 28 3
9487 -2.97601 -3.79837 0.0506483 65 55 26 2.3655 37 47 54 43
9486 -2.50148 -4.25944 0.798192 113 96 44 0.703233 38 387 39 29
1969 5.13717 -0.422723 0.181285 54 62 53 1.99121 6 1595 51 1081
9485 1.12874 -2.84441 1.05965 79 67 32 2.38702 37 1197 36 6
9484 -0.667236 -3.55355 2.08446 248 244 235 1.34296 37 9 38 377 39 212
1967 5.36523 -0.480835 0.648035 105 122 114 0.283008 3 1304 48 1092
9483 -0.600341 -3.55417 2.3476 117 100 66 0.266802 37 5 54 2 36 4
1966 0.934176 -4.89178 -1.68144 27 26 22 0.557522 30 1013 31 817 32 1262
9482 10.0417 -1.28666 -0.271494 122 141 128 2.23694 48 1119 35 1330
9481 10.0417 -1.28666 -0.271494 122 141 128 2.23694 48 1120 35 1329
9480 5.51025 -0.495877 -1.29559 48 48 39 1.51115 51 1098 35 1327
1963 4.95221 -2.61321 0.554137 255 255 255 3.03525 48 1046 5 1338
9479 4.01448 -2.61312 -1.53145 163 159 119 1.24236 50 1061 51 1070 35 1290 34 1555
1962 9.76755 -2.391 1.68974 255 255 255 1.67261 50 999 5 1336
9478 19.8145 -5.34841 1.22664 53 60 52 2.0368 49 994 50 1050
1961 6.44509 -0.914696 0.962001 53 57 51 2.19641 33 1485 5 1335
9477 2.38523 -1.04481 -1.21012 69 78 70 2.25332 51 240 35 1278
9476 4.04834 -0.00488162 0.170152 49 49 41 1.39059 1 1313 51 1049 35 1271
1959 0.895758 -4.80645 -1.74024 81 77 58 0.412373 30 963 31 799
9474 4.26176 0.143417 -1.57078 168 153 90 2.7617 51 1015 35 1249
9473 5.06485 -2.83425 0.205608 29 30 27 2.88482 49 923 35 1229
1956 3.68255 -2.64354 -0.661602 36 36 30 0.624278 34 1464 48 1012 5 1309 32 1208
9472 3.97842 -3.58427 1.54395 150 59 18 0.199637 51 960 35 1219
1955 4.11908 0.0216504 -0.469557 47 47 39 3.049 51 1035 5 1308
9471 3.67678 -2.75222 -1.56931 138 124 60 0.803389 49 938 50 998
1954 4.13318 0.023384 -0.466038 40 39 32 0.124318 6 1467 51 1034
9470 3.67678 -2.75222 -1.56931 138 124 60 0.803389 49 939 50 997
9469 5.192 -0.367878 -1.67757 66 63 42 1.18723 49 826 51 949 35 1161
1952 4.12069 0.010242 0.196475 31 30 25 0.874484 6 1459 48 1049
9467 9.16287 -0.866284 -0.62779 94 109 99 1.06637 1 1131 49 740 51 895
1950 3.93718 -2.60445 0.240548 36 36 30 0.0516048 48 1006 5 1268
9466 4.24975 0.0739462 0.260787 38 36 30 0.580454 1 1172 48 883
1949 5.01035 -0.297702 0.888114 19 18 15 2.02452 6 1455 48 1021 5 1261 7 1062
9465 4.24975 0.0739462 0.260787 38 36 30 0.580454 1 1171 48 882
1948 2.51009 0.186803 -1.58358 122 102 61 1.22213 6 1385 5 1251
9464 46.2624 -8.83526 0.384612 48 53 49 0.776477 2 1000 4 1212 33 1304
1947 2.46575 3.08171 -1.77149 92 84 60 1.63201 6 1309 8 850 5 1249
9463 35.6506 -6.45332 1.62859 112 147 133 2.51348 1 1036 2 927 48 895
9462 5.14079 -0.600945 0.0458306 83 101 94 2.17357 51 75 35 994 49 347
9461 4.62523 -0.224904 -1.6695 26 26 23 1.27878 49 690 51 790 35 959 1 1075
1944 5.58546 4.99235 -0.311329 231 163 108 2.49143 13 1099 42 1165 52 1420
9460 6.34816 -3.14717 -1.73736 62 60 38 1.05235 49 672 35 953
1943 4.28722 -0.0363171 0.0553496 121 111 52 1.06193 7 834 5 1218
9459 24.6585 -6.17441 -1.71323 75 87 74 2.28837 49 662 50 793 51 694 35 831
9458 32.6441 -6.69461 -0.21699 30 33 31 2.00512 2 1005 3 447 48 470 49 649
1941 4.37043 -1.39419 0.312635 80 85 73 0.827217 6 1330 5 1213
9456 32.5838 -6.69035 -0.559879 30 32 31 1.14444 2 655 4 803 49 548 35 665
1939 5.42524 -1.82018 0.981073 123 126 115 1.81375 48 818 5 1202
9455 4.53976 -2.63296 0.225338 45 47 41 1.08682 49 59 50 56
1938 1.32693 -2.32615 -1.65771 35 33 28 0.470998 35 1129 5 1197
9454 4.40095 -2.59666 0.230015 39 40 34 1.34705 49 58 51 321
1937 1.94734 0.298723 -1.75933 77 71 52 0.41629 6 1390 7 947
9453 12.0198 -1.38314 1.39307 85 94 81 1.61029 49 49 35 617
9452 6.08129 -0.297403 -0.707322 50 58 50 1.13753 1 723 48 768 6 1125
9451 3.85341 -2.34875 -0.248235 88 96 78 0.203545 50 903 35 414
9450 3.63579 -2.67174 0.23042 137 124 78 0.639148 49 43 51 35 35 360
1933 5.43207 5.03638 -0.268735 224 197 157 2.12052 13 1038 42 1067 52 1323 5 1173
9449 3.47443 -1.14278 0.221627 105 107 81 1.1251 50 347 35 356
1932 5.59771 5.21803 -0.0229252 230 218 189 1.55037 13 1036 42 1058 52 1318 5 1171
9448 1.80592 -0.0891568 -0.99867 56 58 47 2.23013 50 226 35 239
9447 12.883 -4.42326 -1.62821 65 71 63 1.03953 49 188 50 197 35 179
1930 5.07005 4.98583 0.234278 255 255 248 2.17849 42 1048 5 1159 52 1248
9446 13.6087 -2.79111 -1.11916 67 77 68 0.668008 1 189 50 184
1929 4.25596 -0.0374374 0.166866 113 104 53 1.89383 48 885 51 812
9445 10.0434 -1.02258 0.204349 101 116 107 0.710957 1 453 48 416 35 85
1928 1.38521 -2.26664 -1.66454 166 152 106 0.621908 30 782 5 1127
9444 4.6248 -2.57683 0.368184 147 162 147 1.85663 49 42 35 41
9442 1.98354 -2.23583 -1.68966 52 51 41 2.8119 35 1265 34 1483
9441 2.71609 -1.92503 -1.47891 96 96 73 0.164304 35 1119 34 1481
9440 3.81284 -3.20427 -1.69026 44 43 34 1.38632 49 940 34 1476
1923 9.24236 -3.56869 -1.78429 77 79 60 1.0402 34 1386 5 1108
9439 4.29433 -0.0331894 -0.12696 189 185 157 1.12139 4 1270 49 522
1922 5.27676 3.89855 -0.802255 251 251 243 1.83653 6 1132 7 800 8 783 50 957 5 1104 52 1329
9438 4.59593 -2.3042 -1.4755 88 82 57 2.23222 48 920 34 1388
1921 5.2177 4.00563 -0.813353 198 234 225 1.80181 7 799 8 733 52 1271 5 1103 7 675 50 910
9437 4.41493 -1.43225 0.602591 91 86 72 1.5052 50 752 34 1292 48 817
1920 5.51724 4.62254 -0.760284 204 197 164 0.639232 6 1218 7 674
9436 4.94382 -0.592264 -1.51427 89 82 53 0.956566 35 510 51 220
1919 5.52938 5.28239 -0.113066 201 154 115 1.30791 13 993 42 1059 52 1258 5 1093
9434 16.726 -5.06192 -1.66813 52 52 40 1.6566 1 884 50 959 51 904
1917 2.2179 -2.00139 -0.321263 88 103 91 1.55033 33 761 5 1082
9433 3.0145 -0.290078 -0.166049 103 106 79 1.35973 35 45 50 64
9431 4.44047 -2.28715 -1.20784 90 85 58 0.425998 35 492 34 1061
9430 7.24566 -0.361062 0.256407 60 66 59 0.39444 49 624 34 979
1913 1.46146 -2.26125 -1.74273 77 71 54 0.598217 31 643 35 1047 5 1058
9428 4.63771 -1.19678 0.588258 105 106 81 2.61468 50 938 34 945
1911 1.92746 0.424771 -1.651 28 28 22 1.62829 6 911 5 1050 35 1176
9427 4.49818 -2.42795 -1.6924 52 55 48 2.04842 35 713 34 903
1910 3.87917 -0.0165975 -1.75494 93 89 65 0.455882 34 1399 5 1049
9426 6.74513 -2.49588 -1.75811 77 82 70 0.574265 35 505 34 876
1909 4.10387 -0.0387381 -1.60612 41 40 35 2.44746 6 1056 5 1048
9425 7.97883 -3.00299 -1.75418 68 71 61 0.0149522 35 701 34 869
1908 6.39291 -2.95633 -1.74329 79 78 48 0.608468 32 898 35 711
9424 4.39988 -2.61855 0.0325479 91 95 73 1.16303 35 790 51 528 34 784 49 520
9423 7.42653 -0.721739 0.541647 141 167 154 0.393735 35 787 34 781
1906 5.14872 4.22824 -0.687454 254 254 255 2.04628 6 1014 7 739 13 949 5 1028
9422 4.50443 -1.25592 0.546268 99 92 73 0.706258 48 44 34 748
1905 2.98536 2.7557 -0.715677 247 246 206 1.16187 6 1281 5 1027
9421 4.50443 -1.25592 0.546268 99 92 73 0.706258 48 43 34 747
1904 22.3292 -2.27077 1.79423 46 53 51 2.257 32 1099 51 821 33 1289
9420 4.45384 0.20054 -1.74244 46 44 33 0.299095 35 261 34 686
1903 4.63289 -0.21357 0.0957175 120 128 106 1.49947 6 1096 51 512 48 730
9419 3.39125 -0.254477 -1.40081 37 37 30 1.76463 50 278 34 683
9418 4.82553 -1.07498 -1.7525 111 97 59 1.01569 35 244 48 304 34 675
1901 4.93754 -1.38988 0.25925 60 68 60 3.0047 48 393 5 994
9417 6.73077 -3.23311 -1.68532 55 55 41 0.394439 49 457 34 636
1900 4.58944 -0.254144 0.182316 108 118 98 1.91408 6 1097 48 723
9416 0.339448 -1.16245 -0.593258 78 84 73 0.120848 48 852 34 623
9415 39.5292 -9.28981 2.24196 43 51 45 0.964618 2 85 5 484 32 670
1898 1.27296 -2.6232 -1.73887 32 31 26 0.307653 35 977 5 975
9414 28.853 -6.97496 1.76773 16 18 17 1.16762 35 409 48 434 51 351 34 535
1897 1.27486 -2.53515 -1.64819 33 31 26 0.726953 35 1046 5 972
9413 28.853 -6.97496 1.76773 16 18 17 1.16762 35 408 48 433 51 350 34 534
1896 1.29801 -2.43908 -1.64802 32 31 25 1.94826 35 889 5 971 32 599 31 402 30 292
9412 19.3675 -2.13099 1.05999 124 148 135 1.62656 51 664 34 520
1895 1.3077 -2.42828 -1.65308 37 36 29 1.51809 35 888 5 970 32 787 34 1114
9411 4.43814 -1.3928 0.456916 145 125 76 0.956609 48 52 34 462 6 496
9410 4.41852 -1.58976 0.629538 118 112 93 0.618163 50 333 34 459
1893 1.41113 -2.25855 -1.72815 39 38 32 2.26995 31 518 5 968 32 1034
9409 2.04777 -2.24109 -1.73892 130 118 83 0.0337046 35 282 34 415
9408 4.02362 -2.71059 -1.64459 146 143 101 0.433294 51 249 34 358
1891 1.45743 -2.25447 -1.72698 21 20 17 0.955038 30 721 31 582 5 966
9407 4.51499 -2.31386 -1.66108 96 88 59 1.48755 35 228 34 352
1890 1.33508 -2.25636 -1.6499 33 32 27 0.462076 31 578 35 884 5 965
9406 5.90636 -2.60359 -1.75339 101 93 59 0.215606 35 215 34 320 51 226
1889 1.47886 -2.21702 -1.65073 28 27 22 0.615834 31 638 35 876 5 962
9405 21.4004 -3.23072 -1.49704 61 73 66 1.55119 1 183 3 462 4 174 5 175 33 584 48 216 34 246 32 501
1888 2.37215 1.85762 -2.35934 194 193 154 3.5909 7 706 5 961
9402 6.56229 -0.262531 -0.721133 57 65 55 0.273365 35 457 34 201
1885 4.95102 4.10073 -0.647403 143 147 132 0.795918 13 889 52 1204 5 916
9400 4.56891 -2.58827 -0.385474 87 102 91 2.28298 3 440 51 140 49 139
1883 5.58836 5.36164 -0.815105 210 162 114 1.55222 13 898 42 968 52 1123 5 914
9398 27.0056 -6.76827 0.406669 52 63 57 2.42065 1 138 5 138 32 120 35 119 49 123 51 120 34 156
1881 5.38303 4.43295 -0.190984 171 175 155 1.59004 6 830 7 547 13 871 42 947 52 1100 5 902 12 893 41 1125
9397 29.4082 -4.98107 0.724954 121 143 132 2.47306 1 469 32 105 48 167 34 141 49 533
1880 2.04189 -1.95999 -0.378987 108 142 116 2.78038 48 147 5 897
9396 9.55336 -0.922933 0.348573 77 94 87 0.878207 48 93 51 88 34 87
9395 3.94658 -2.69334 -0.0111233 113 108 52 2.02133 35 919 49 88 34 76
1878 4.57147 -2.68016 0.246599 65 72 58 0.522991 48 399 50 55
9394 3.59127 -2.636 0.229408 47 46 35 0.570635 35 21 34 43
1877 9.27927 -2.3207 1.14582 84 90 75 1.36493 48 821 50 756 5 856
9392 14.2729 -3.24472 -5.36375 113 127 115 3.20037 34 1509 33 1481
1875 1.28185 -2.52957 -1.74283 99 92 68 0.242453 35 763 5 840
9391 14.2729 -3.24472 -5.36375 113 127 115 3.20037 34 1510 33 1480
1874 1.27887 -2.53514 -1.73313 32 31 26 0.728235 35 899 5 839
9390 9.40947 -1.05583 -2.01895 77 80 64 1.82144 4 1407 35 1262 33 1473
1873 1.3339 -2.35225 -1.75377 90 83 66 2.4046 32 620 35 759 31 426
9389 1.92385 -5.50601 -0.824518 51 49 40 0.371554 28 1221 38 1276
1872 1.33906 -2.24805 -1.66825 31 30 25 1.26467 31 517 35 756 5 833 32 796
9388 4.13811 -1.51942 0.269997 81 87 76 0.792335 51 970 33 1414
1871 1.46211 -2.25417 -1.74111 84 78 60 0.794134 30 506 31 516 5 832
9387 7.3919 -0.71335 -1.77988 71 65 41 0.0342526 4 1289 49 751
1870 1.99481 0.278442 -1.65586 39 38 30 0.425483 6 706 7 617 5 823
9385 4.83394 -2.50095 -1.02753 42 44 35 0.158161 48 513 50 202
9384 9.18807 -2.3227 1.21855 116 114 102 1.05788 34 1368 33 1339
1867 2.47562 3.07487 -1.69226 22 21 18 2.20422 6 399 52 912 5 817 7 460 13 774
9382 3.05792 -7.81346 0.256491 202 178 145 0.974592 37 1009 33 1287
1865 2.98669 2.84506 -1.72171 39 38 29 1.49703 6 904 52 1163 5 812 13 782
9378 4.49786 -2.55649 -1.39528 72 72 48 2.12972 34 1191 33 1262
1861 4.12061 0.0140061 -0.795609 30 29 23 0.965135 6 1019 34 1261 5 765
9376 1.5552 -4.86893 -0.0400808 254 254 254 2.65247 28 752 38 1024
1859 5.24879 4.03977 -0.751102 188 224 215 0.792202 6 620 7 409 8 496 50 697 5 761
9375 4.46746 -1.39652 0.642127 92 88 75 2.58417 34 1120 33 1201 48 712
9373 4.92892 -0.59266 -0.320263 55 62 56 1.04263 34 1004 33 1146
1856 5.32219 4.14899 -0.356695 196 195 174 0.755965 8 580 13 883 5 742
9372 4.85494 -1.34604 0.252049 42 48 44 0.221182 48 603 33 1126
1855 5.4302 4.60146 -0.346359 189 193 170 0.258871 6 578 7 550 5 741
9371 4.87818 -1.30608 0.253949 42 49 46 0.313323 48 602 33 1125
9370 4.41189 -1.45183 0.625171 102 101 89 0.298272 35 768 33 1119
9369 3.91532 -2.30038 -1.46528 65 67 46 1.93411 4 1037 48 693
1852 5.52866 5.20254 -0.174924 229 211 177 0.953163 13 806 42 752 5 725
9368 4.85663 -0.605599 -1.44903 50 47 31 3.13521 48 859 33 1090
1851 5.52866 5.20254 -0.174924 229 211 177 0.953163 13 805 42 753 5 724
9367 3.32632 -6.46589 -1.65616 46 43 31 1.16636 34 1078 33 1077
1850 5.57912 5.31557 -0.040898 220 207 174 1.65741 13 792 42 863 52 959 5 722
9366 8.24177 -0.704225 0.796092 66 78 74 1.71077 34 961 33 971
1849 5.29307 3.87664 0.23533 254 254 245 0.27421 6 527 5 705
9365 5.14658 -0.687015 -1.7493 88 77 43 1.88738 48 303 51 464 33 915
1848 5.34849 4.67961 0.221915 200 190 167 0.599297 6 807 42 1003 52 1178
9364 4.75894 -0.503886 -1.39004 58 58 36 0.509585 34 641 33 898
1847 3.60837 -2.66822 -0.035237 32 32 24 0.462696 48 101 5 703 32 651
9362 4.25445 -2.37336 -1.37528 63 64 46 1.30762 48 534 33 890
1845 9.41381 -2.27767 1.21782 124 124 106 1.50889 50 539 5 685 6 1089
9360 4.43779 -2.29304 -1.3163 85 87 65 0.536856 34 293 33 879
1843 4.4669 -1.41267 0.782842 124 118 97 2.18322 34 935 48 357 6 936 35 594 49 305
9359 3.03412 -7.2329 -0.754468 173 174 151 0.336191 27 684 33 848
1842 1.28119 -2.6421 -1.70124 29 29 24 0.704934 35 327 5 659
9355 13.5358 -1.78244 1.71279 55 61 54 1.66619 34 965 33 746
1838 1.3087 -2.4433 -1.69534 26 25 21 1.41063 30 484 31 414 5 649 32 356
9354 4.46656 -1.3707 0.651161 153 137 98 0.405949 33 723 34 740
1837 1.35981 -2.23764 -1.74557 52 49 36 1.3854 30 508 35 584 5 647 31 524
9353 4.42618 -1.3717 0.639401 155 140 100 0.530487 35 352 33 722
1836 1.35838 -2.24249 -1.74013 66 61 47 1.46538 30 507 35 317 5 646 31 424
9352 4.48567 -1.19868 0.758538 141 134 100 1.40936 48 15 33 707
1835 1.47218 -2.23106 -1.73656 26 25 21 1.05567 35 305 5 645 32 367
9351 0.812807 -1.33752 -0.730743 61 58 38 0.0504521 34 1091 33 661
1834 1.46408 -2.22803 -1.64381 32 32 25 0.829833 35 877 5 637
9350 4.88059 -0.599463 -1.52255 62 55 34 1.72818 49 674 33 660 4 863
