# 3D point list with one line of data per point:
#   POINT3D_ID, X, Y, Z, R, G, B, ERROR, TRACK[] as (IMAGE_ID, POINT2D_IDX)
# Number of points: 557, mean track length: 3.99628
8573 -2.22737 0.196463 -0.529165 22 31 26 1.29323 10 7524 11 5505 12 6301 9 5834
1056 -1.54726 2.76443 -0.852575 95 83 48 0.958189 2 4005 1 4062 3 2042 10 3187
10315 -2.67894 2.7151 -0.852623 105 92 45 0.196363 2 1830 3 1639 10 2789 1 2865 4 1445 5 1599
2798 -1.5306 3.16132 -0.842376 52 47 31 0.606395 3 3443 10 5158 2 5115
8574 -2.20097 0.201376 -0.551293 27 36 28 0.630766 10 8083 11 4774 12 4115 9 5835
1057 -1.37541 2.7734 -0.847215 76 67 42 1.93817 2 4008 1 4063 4 3737
2838 -2.11448 1.1387 -0.361727 49 45 32 0.73049 5 2960 2 5246
10355 -2.11909 0.692537 -0.275458 15 15 15 1.32784 3 4489 5 2950 11 1489 2 5349 12 1406 10 4806
10316 -2.51953 2.98414 -0.850142 93 84 51 0.354499 2 3597 10 4941 1 2866 3 1640 4 1257 5 1422 6 1278
2799 -0.554674 1.66823 -0.120378 96 94 82 0.300584 3 1670 2 5120
8575 -2.01434 0.38133 -0.519075 29 44 33 0.527653 10 7565 11 4778 12 5417 9 5836
1058 -1.12563 2.91875 -0.844243 54 48 31 0.317542 2 4015 1 4067 3 3663
2839 -2.11907 1.22995 -0.386236 8 8 5 1.16407 5 2968 10 2745 2 5250 3 1793 4 2787 13 1300
10356 -2.08779 0.643197 -0.249471 47 43 32 0.71987 5 1515 9 2115 2 5459 10 2573 11 1310
10317 -2.1269 1.0903 -0.190492 22 22 18 0.662695 2 3549 1 2916 4 2580 5 1245 6 1100 13 2697 3 3183 7 1200
2800 -0.591369 5.5402 -1.47172 86 85 75 0.762751 3 3465 2 5121
8576 -2.06448 0.532468 -0.501926 42 39 30 0.348836 10 7499 11 4754 12 5384 9 5838
1059 -2.08447 0.632791 -0.110238 48 43 34 0.839772 2 3799 1 4076
10318 -2.52802 2.64597 -0.849494 66 59 33 0.650818 2 3724 10 4938 1 2955 3 1828 5 1600
2801 -0.591369 5.5402 -1.47172 86 85 75 0.762751 3 3466 2 5122
8577 -2.05937 0.608529 -0.501354 56 52 37 0.528586 11 4756 12 5386 9 5839
10319 -1.40748 3.15088 -0.84324 63 54 33 0.9784 2 1995 1 2962 3 1839 4 1611 10 5263
2802 -0.456324 1.72745 -0.118924 122 116 99 0.00723456 4 1298 5 1454
8578 -2.21322 0.827819 -0.574464 63 56 36 0.221109 11 4725 12 5394 9 5845
1061 -2.17946 1.10224 -0.364548 22 19 14 0.571071 2 5241 1 4088 13 3974
10320 -1.92295 1.14929 -0.194922 18 18 15 0.366646 3 1580 1 3012 4 1201 2 3705
2843 -2.75746 2.05253 -0.847626 69 60 34 0.310658 3 3523 4 2890 5 1756 6 1626 10 5039 13 1433 2 5262
10360 -2.02826 0.551054 -0.182339 45 41 33 1.42811 8 1541 2 6085 9 1971 10 2568
10321 -3.38399 2.49243 -0.850245 103 90 47 1.13864 4 4835 6 5582 2 7262 7 5646 3 6020 5 5009 9 7365 10 8621 11 6224 12 6729 13 5762
2804 -0.435864 1.79682 -0.131695 32 33 27 2.05542 3 3350 2 5132
8580 -2.46998 1.00652 -0.77283 75 66 38 2.04098 10 7501 11 4765 9 5847 12 1835
1063 -2.11355 1.24721 -0.397235 78 68 43 1.88133 5 3822 1 4096 4 1567
2844 -2.67065 2.0358 -0.846118 73 62 33 0.318698 3 3526 4 2891 5 1759 6 1627 10 5040 11 1542 2 5263
10361 -2.07525 0.656953 -0.318115 54 50 40 0.769979 5 3863 8 1671 2 6179 10 4897 9 2118
10322 -4.51372 1.54459 1.55294 51 49 42 0.717426 2 2705 1 3310 3 242 5 383 10 726 11 104
10324 -2.95912 3.17504 1.55216 177 164 108 0.503912 2 2713 5 401 9 578 10 727 13 2193 1 3320 3 261 4 226 6 342 7 392 8 556 11 55 12 75
2807 -0.408974 1.76732 -0.121322 85 83 72 0.266287 3 3352 2 5136
8583 -2.11248 0.230086 -0.577885 17 23 19 0.762989 11 5530 12 5450 9 5891
1066 -1.836 1.19012 -0.281675 17 17 14 0.74767 2 3849 3 1807 10 2617 13 1310 1 4103 6 1244 7 1470
2847 -2.20183 2.25238 -0.852165 88 79 43 0.509838 3 3641 4 2997 5 1769 10 5141 13 1443 2 5272
10364 -2.07616 0.616306 -0.111057 62 55 36 0.727059 9 1872 11 3232 2 6468 10 4644 12 3712
10325 -3.60485 2.75974 1.16851 158 147 95 0.567716 2 4436 9 790 10 3885 13 3409 1 3345 3 2554 4 261 5 422
8584 -2.05538 0.222211 -0.591275 19 25 20 0.588879 11 4799 12 4175 9 5892
2848 -2.12512 2.28563 -0.842038 99 87 46 1.3815 3 3645 4 3001 10 6550 13 1446
10365 -2.05839 0.593435 -0.277035 59 53 38 1.13548 8 1667 2 6564 9 2117 10 4894 11 1484 12 1540
10326 -6.80274 1.86041 1.06012 18 22 36 0.803471 2 4460 9 912 10 3941 11 2696 12 3218 1 3380 5 3353 8 755
8585 -1.91734 0.374496 -0.556764 32 56 39 0.209323 11 4804 12 4182 9 5895
10327 -3.62569 2.75768 0.859246 72 64 40 0.355593 2 4471 5 2349 6 2455 9 926 10 3951 1 3392 3 2597 4 2247 11 2711 13 3448
8586 -1.91223 0.386879 -0.551948 33 55 40 0.730769 11 4805 12 5455 9 5896
2850 -1.39269 2.76403 -0.848472 54 49 34 1.02268 3 4554 4 3736 10 7551 2 5280
10367 -2.03791 0.557585 -0.0352943 9 9 9 1.74758 8 4804 12 5078 2 6746 10 7175 11 4414
10328 -3.62569 2.75768 0.859246 72 64 40 0.355593 2 4472 5 2350 6 2456 9 927 10 3952 1 3393 3 2598 4 2248 11 2712 13 3449
2811 -0.360173 1.80157 -0.121947 82 80 68 0.705562 3 3356 2 5141
8587 -1.9095 0.453781 -0.513406 31 56 36 0.300259 11 4779 12 5419 9 5898
2851 -0.549393 4.40416 -1.25202 86 83 70 0.587996 3 4475 2 5295
10368 -2.03487 0.556288 -0.109194 76 66 39 0.498381 8 3503 2 6783 9 5512 11 4475 12 5112
10329 -0.48435 5.05629 -0.763607 54 60 85 0.871047 4 4811 6 5784 7 5832 1 5602 5 5215 11 6436 12 7349 13 5501
8588 -1.91001 0.44888 -0.526133 23 36 27 1.44696 10 8084 11 4782 12 5421 9 5900
2852 -0.535639 1.85886 -0.230936 128 123 100 0.251183 9 2683 13 976
10369 -2.03312 0.549476 -0.168452 45 41 32 0.74517 8 3577 2 6805 10 7277 11 4540
10330 -1.99288 2.37511 -0.852687 77 68 41 0.738071 2 7127 1 5652 3 5835 4 4715 10 8661 13 5325
8589 -1.91001 0.44888 -0.526133 23 36 27 1.44696 10 8085 11 4781 12 5420 9 5901
2853 -0.471655 1.69679 -0.176974 134 129 105 0.445166 4 2913 13 975
10370 -2.04151 0.571012 -0.171423 68 59 37 0.6204 8 4915 2 6806 9 5555 10 7237 11 4541 12 5160
10331 -6.61162 2.01749 0.45502 10 10 11 1.05619 2 7208 3 6193 5 5298 6 5865 7 5800 9 7266 11 6383 12 7299 1 5675 8 6607 10 8536
8590 -1.87051 0.459069 -0.524837 34 55 38 1.41519 11 5512 12 5423 9 5902
1073 -1.70212 2.23944 -0.778843 70 61 39 2.36046 2 2315 1 4118 3 4543 10 3180 10 6614
2854 -0.481689 4.39383 -1.23178 86 83 72 1.65359 3 3566 2 5300
10371 -2.08009 0.656687 -0.233697 56 51 37 1.08361 3 5803 5 4770 9 5605 2 6808 10 7281 11 5341
10332 -2.34771 3.58602 0.356175 224 208 132 0.681788 2 7216 4 4958 5 5174 6 5741 7 5803 8 6869 9 7505 10 8733 13 5692 1 5680 3 5919 11 6561 12 7303
2815 -2.13144 0.709718 -0.189426 17 16 15 0.711945 3 4379 10 2449 2 5154 12 1281
8591 -2.06965 0.734379 -0.628977 53 48 36 0.816133 10 6657 11 3650 12 5425 9 5907
1074 -1.16192 2.59687 -0.781609 60 53 37 0.28405 2 2329 1 4126
10333 -2.07455 0.681046 0.119535 64 58 40 1.72922 2 6925 3 5954 10 8255 1 5695 8 5653 9 6323 11 5786 12 6015
8592 -2.21676 0.854054 -0.753789 52 48 35 0.21475 10 7575 11 4793 9 5912 12 5432
1075 -2.12609 0.77495 -0.20335 53 45 28 1.49558 8 1419 1 4149 12 1286
2856 -0.473067 1.70333 -0.179131 89 85 74 0.336625 3 3454 2 5302
10373 -2.0817 0.631629 -0.297111 61 54 39 0.588564 8 5011 2 6843 9 4310 10 6371 11 4608 12 5235
10334 -6.31862 1.72214 0.336039 38 37 35 1.35293 2 7456 8 7081 1 5805 5 5443 10 8730 11 6687 12 7642 9 7682
8593 -2.37168 1.04347 -0.777644 85 74 43 1.04555 10 7539 11 4767 9 5916 12 4138 13 4924
1076 -2.19508 0.811407 -0.242702 55 45 25 0.26006 2 3808 1 4151 3 4388
2857 -0.926404 2.73841 -0.535527 123 119 99 3.13925 6 1476 7 1541
10374 -2.07768 0.619806 -0.204711 14 15 13 0.8729 8 6313 2 7149 10 7897 11 5861 12 6719 9 7008
10335 -2.19285 1.26776 0.219315 18 18 14 1.15967 2 7463 3 6294 4 5041 8 6874 9 7694 10 8866 11 6574 12 7493 13 5958 1 5810 7 5938 5 5307 6 5954
8594 -2.2118 0.982465 -0.780694 82 71 40 0.422909 10 8092 9 5917
10336 -3.57187 2.66326 -0.854408 79 69 41 0.780073 2 7473 3 6363 4 5099 5 5401 6 5967 9 7888 11 6596 13 5976 1 5820 12 7530 7 6033 10 8897
2819 -2.16007 1.08621 -0.321465 36 36 34 1.28724 5 2864 13 2865 2 5172 3 4396 4 3626 11 1337
8595 -1.8739 1.29245 -0.672984 104 90 44 1.17871 11 1846 13 4916
1078 -3.01047 1.36179 -0.781709 66 58 40 1.63065 2 5355 10 2870 1 4158 13 2990
10337 -2.09236 0.614848 0.0270032 82 71 50 1.96908 8 6879 9 7526 1 5824 10 8759 11 6413
8596 -1.99335 0.162227 -0.596268 24 37 23 0.331101 11 4825 12 4218 9 5939
1079 -2.41826 1.10295 -0.462464 66 58 42 0.401727 2 3951 1 4161
2860 -0.15979 4.22839 -1.09701 41 38 33 0.200336 8 6441 2 5319
10377 -2.08582 0.625798 -0.228041 63 56 39 0.831941 8 6314 2 7316 9 7009 10 8336 11 5862 12 6720
10338 -3.63648 2.49593 -0.841094 74 65 41 2.57721 2 7529 10 9001 13 6091 3 6394 1 5865
8597 -2.00436 0.172302 -0.599086 29 48 29 0.403216 11 4826 12 4219 9 5940
10339 -1.46863 1.9587 1.54421 109 99 61 0.963167 3 158 4 150 6 269 10 243
2822 -2.89124 2.1534 -0.85045 75 66 37 0.574053 3 4410 4 3638 5 1591 6 3057 10 4933 13 2880 2 5185
8598 -1.95108 0.327157 -0.587585 28 44 34 0.986665 11 5532 12 4180 9 5945
10340 -1.92507 1.79399 1.55194 194 182 127 0.62077 3 146 4 170 10 3506 2 154 5 327 6 289
2823 -2.75448 2.16204 -0.844202 78 69 38 0.197033 3 3524 5 3063 2 5186
8599 -1.81898 0.452243 -0.559816 26 41 27 0.982047 11 5534 12 6336 9 5948
2863 -0.403542 1.07428 0.0808046 37 35 29 0.0241082 3 1671 2 5328
10380 -2.04912 0.567821 -0.173741 69 59 34 2.06477 8 7104 2 7568 9 7877 10 9004 11 6731 12 7669
8600 -1.79627 0.400839 -0.581818 21 33 24 0.457806 11 4809 12 4226 9 5949
1083 -2.13044 1.21524 -0.426496 72 64 42 1.09114 2 3970 1 4174 10 2755 3 1989
10342 -4.97628 1.88505 1.56608 24 25 28 0.712505 3 252 9 721 10 846 11 105 12 154 2 248 4 220 7 412 6 340 1 2049
2825 -2.13341 2.7837 -0.847725 67 59 33 0.470459 3 3431 10 6476 2 5194 13 1186
8601 -1.8258 0.416026 -0.616855 39 32 20 0.253214 11 4836 12 5468 9 5950
1084 -1.80161 1.23917 -0.351641 88 76 45 1.57534 3 2010 1 4183
2865 -2.07715 0.642023 -0.233915 36 33 27 0.711677 3 4486 5 2943 2 5347
10382 -6.52592 0.688597 0.226469 28 26 21 0.598202 11 651 8 974 12 714 10 1373
8602 -1.86589 0.474966 -0.640455 37 31 21 0.229095 11 4814 12 5471 9 5951
1085 -2.0882 0.635431 -0.15628 26 23 19 1.09429 2 3926 5 1339 1 4186
8603 -1.88266 0.485391 -0.654105 86 69 38 1.61577 11 4815 12 5472 9 5952
2867 -2.12575 0.705414 -0.271474 8 8 8 0.836507 3 4490 2 5351 5 2951
10384 -2.02868 0.546653 -0.416236 34 32 26 0.597661 9 2459 12 1708 8 1814 10 5105 11 1719
10345 0.0226397 5.42418 0.282079 49 51 57 1.34846 4 2351 6 2567 7 3964 8 4710 2 690 3 650 5 2431 13 238 11 4208
8604 -1.87739 0.497253 -0.657419 60 50 28 0.756392 11 4816 12 4237
1087 -2.22769 0.865139 -0.330038 47 45 38 0.568481 2 3943 1 4189 3 3486
2868 -2.42303 1.13414 -0.558773 44 40 30 0.00447019 3 3600 2 5359
10385 -2.02805 0.546494 -0.415959 33 30 25 0.631978 9 2460 8 1815 10 5106 11 1720
8606 -1.68541 0.208745 -0.56673 30 48 31 0.645359 11 4850 12 5492 9 5972
10348 -2.51299 2.48921 1.55203 234 227 178 0.545545 3 236 2 2702 7 384 10 538
8607 -1.77121 0.319558 -0.645259 49 36 20 0.831149 11 4851 12 5496 9 5977
2871 -2.10516 1.10274 -0.411452 18 17 13 0.582635 10 4918 2 5364 3 4515
10388 -2.11869 0.62394 -0.0709035 6 6 5 0.952248 9 4139 11 3175 12 1177 8 3447 10 6196 12 5080
10349 0.0225693 5.42467 0.391811 49 50 55 1.25154 4 2312 7 3963 8 4670 2 2867 3 646 5 2428 6 2525 13 183
8608 -1.78665 0.351349 -0.652919 87 65 31 0.349941 11 5560 12 5499 9 5978
2872 -2.19236 1.15973 -0.485332 49 44 31 0.644834 3 2142 13 1513
10389 -2.04305 0.575076 -0.449888 13 14 13 1.09495 9 4547 12 4065 8 3956 10 5219 11 1728
8609 -1.81563 0.394918 -0.650366 85 61 29 0.942514 11 4835 12 5469 9 5980
2873 -9.12846 5.94421 -4.25068 64 56 34 2.14286 13 1645 2 5367
10390 -2.08491 0.650464 -0.666475 41 38 31 0.990981 9 2787 11 3693 8 4101 10 5408 12 2042
8610 -1.83365 0.419883 -0.657038 88 68 35 0.15681 11 4839 12 5473 9 5982
1093 -0.615592 3.38936 1.54869 64 57 41 1.21588 5 3321 1 4200 4 2155
8611 -2.01919 0.557826 -0.764173 71 61 38 0.683573 11 4842 12 5475 9 5983
1094 -0.663242 3.44663 1.5473 62 56 43 1.89532 2 4414 1 4203
2875 -2.12425 1.21689 -0.477611 62 56 33 1.18983 3 4522 2 5369 10 6459
10392 -2.08959 0.501225 -0.330923 50 46 36 0.569816 12 3882 8 5007 9 4420 10 7390 11 4673
10353 -2.06742 0.61592 -0.163669 47 39 27 0.890813 8 1410 2 5226 10 4702 11 1307
8612 -2.05206 0.592613 -0.754391 54 49 35 0.429146 11 4817 12 5477 9 5985
10354 -2.03018 0.557465 -0.173121 80 69 40 1.08224 8 1540 2 5342 10 2566 11 1304 12 1400
8614 -1.65703 0.14916 -0.594663 30 44 30 0.490432 11 4857 12 5519 9 6000
1097 -10.612 3.339 2.44579 4 5 8 1.0984 7 3885 1 4208
8615 -1.6591 0.171041 -0.633568 48 36 22 1.27897 11 5568 12 5522 9 6001
1098 -3.39899 3.21848 1.16481 49 46 31 0.757361 4 2189 5 2275 6 2396 7 2656 8 3116 9 3529 12 3169 11 2630
10357 -2.07208 0.623624 -0.274078 56 51 36 1.49757 8 1670 2 5460 11 1485 12 1541
8616 -1.73817 0.281169 -0.674967 66 41 19 0.478807 11 4863 12 5498 9 6003
1099 -3.33686 3.20321 1.1544 41 38 26 0.969022 2 4440 10 5709 1 4215 3 3915
2880 -1.72268 2.20067 -0.768707 61 53 32 0.780169 3 3653 10 3178 2 5383
10397 -2.18677 0.323104 -0.288891 39 33 15 0.720776 12 5224 9 5597 11 5424 10 7933
10358 -2.10743 0.553882 0.191524 84 75 50 0.380914 8 1052 12 827 2 5708 10 4352 11 753
8617 -1.77949 0.341325 -0.726743 67 45 19 0.24008 11 5571 12 6390 9 6004
1100 -3.31457 3.22823 1.15651 42 40 28 1.35499 2 4441 10 5710 1 4216 3 3916 6 386
2881 -1.58523 2.28372 -0.775906 88 79 48 0.295572 3 3655 2 5389 10 7546
10398 -2.45466 0.157558 -0.500644 44 40 34 0.34 10 7996 9 6540 12 6257 11 5966
10359 -2.07838 0.6296 -0.164959 40 35 24 0.863481 5 2835 2 6038 12 1278 10 2447
8618 -1.65494 0.15053 -0.683372 87 64 32 0.911983 11 4873 12 5539 9 6023
1101 -2.25017 3.43829 1.10996 250 248 236 0.732224 5 3340 6 3617 8 4578 9 5119 10 6874 12 4828 13 3421 1 4217 3 3908 4 3213 7 3892 11 4128
2882 -1.52976 2.31695 -0.775198 86 79 49 0.880468 3 3657 10 5357 2 5391
10399 0.503714 2.18122 -0.290391 118 115 111 1.25026 12 7393 6 5829 7 5727 8 6762
8619 -1.69991 0.219465 -0.67113 73 47 20 0.278671 11 4861 12 5523 9 6024
1102 -2.25057 3.4393 1.11022 248 245 238 0.347285 4 3214 13 3422 1 4218
2883 -1.43177 2.40288 -0.77107 49 42 26 1.20123 3 3658 10 6690 2 5392
10400 -6.06177 2.10887 0.504376 25 25 29 2.30885 7 5591 8 6608 9 7267 12 7030 6 5737 10 8537 11 6384
8620 -1.7322 0.264822 -0.740752 83 63 31 0.467443 11 4874 12 5525 9 6025
2884 -0.570021 0.446173 0.278835 64 59 40 0.311181 11 3054 2 5397
10401 -0.932006 5.10714 1.04072 26 26 23 1.40521 12 4845 13 2235 11 4132 7 2695 8 779 4 317
8621 -1.64295 0.127321 -0.697164 71 50 24 1.42874 11 5597 12 5540 9 6030
10363 -2.15297 0.764221 0.0272655 90 76 37 1.83521 3 5657 11 5807 5 4962 9 6937 12 7077 8 6880
8622 -1.72314 0.30143 -0.786867 78 65 37 0.426209 11 4879 12 4343 9 6032
1105 -0.466601 5.11127 1.10451 7 7 7 0.95721 4 4306 6 5007 12 7002 5 4076 7 5247
8623 -1.72314 0.30143 -0.786867 78 65 37 0.426209 11 4878 12 4342 9 6033
1106 -8.82871 2.90696 1.64729 7 7 7 1.84106 7 2652 11 2673 12 4852 1 4225 4 3207 6 3615
8624 -4.02885 0.710203 0.922688 47 43 44 0.337929 12 6579 9 6136
1107 -8.55477 2.83044 1.56785 4 4 3 1.38454 4 3865 9 5127 11 5075 1 4226 6 4408
2888 -0.369827 1.65455 -0.198741 58 53 40 3.16316 4 3035 2 5437
10405 -2.17283 1.01683 -0.770377 84 72 41 1.84213 13 5913 5 5354 9 7608 10 8835 11 6485
10366 -1.92071 1.73925 1.5521 174 160 106 1.59283 3 5239 2 6606 10 8119 2 6851
2889 -0.342851 1.76871 -0.236194 99 95 78 1.24944 4 1842 2 5440
10406 -2.33586 1.1892 -0.705003 69 61 38 1.94464 6 4220 9 5848 11 4726 13 4906 12 4082 7 3482 4 3095
8626 -4.03323 0.872964 0.957471 9 12 22 0.299363 10 3872 9 6138
2890 -0.342851 1.76871 -0.236194 99 95 78 1.24944 4 1841 2 5441
10407 -2.03511 0.846726 0.256089 161 88 38 1.19836 9 5305 12 4943 11 5163 4 3934 5 4118
8627 -6.55859 0.442236 0.704028 44 45 45 0.328318 10 6939 12 6593 9 6186
9546 -1.86823 1.18447 -0.245455 26 26 21 0.724636 7 4133 13 3915 4 4092 5 3741 6 3988 10 6327 11 3270 2 6020 8 3624 9 4336 12 3819
2891 -0.314075 1.78762 -0.23192 52 47 37 2.18771 4 1845 2 5447
10408 -1.80535 1.62419 1.54828 102 93 59 1.89686 5 5280 6 5854 4 5021 7 5561 8 6160 9 7648 3 6272
8628 -6.91333 0.876319 0.517405 28 28 25 1.7543 10 7704 12 6602 9 6220
1111 -6.76349 1.95718 0.864497 9 9 8 1.30289 3 3951 6 3642 7 3926 8 3187 10 1202 11 2742 12 3261 1 4240 5 2330
2069 -2.53516 3.47883 -0.852665 123 114 72 0.867622 3 1404 4 1063 6 1281 9 2333 11 1260 2 1429 7 1375
9586 -4.23666 2.33516 1.55448 74 66 41 0.803055 10 848 13 4345 3 2549 4 2165 5 399 9 576 12 155 2 4419 6 2371 7 2629 8 555 1 3318
9547 -2.16595 1.06757 -0.271497 40 38 32 0.493562 7 4125 8 3604 9 1998 6 3977 12 3731 11 1237 4 3555 5 2857 13 3905
2892 -0.312308 1.78376 -0.239363 50 45 35 0.278376 4 1848 2 5448
10409 -2.62727 1.18144 -0.770043 88 77 45 1.01404 7 5484 4 4936 12 6277 3 6159 10 8413 2 7350 9 7119 11 5477
8629 -6.4595 0.395501 0.140601 34 33 31 0.72452 10 7723 12 6612 9 6264
1112 -6.76349 1.95718 0.864497 9 9 8 1.30289 3 3952 6 3643 7 3927 8 3186 10 1201 11 2743 12 3262 1 4241 5 2331
9548 -0.920384 4.77976 -0.716026 73 75 86 0.240243 11 4442 12 5209 6 3939 7 4172 8 4964 5 3623
2031 -2.08219 0.935976 0.103813 16 17 13 0.405651 3 950 4 696 2 1082
8630 -6.43564 0.617259 0.124908 13 13 9 0.808896 10 7003 12 5945 9 6267 11 5749
1113 -6.77708 2.04872 0.901047 10 11 11 1.46899 5 3378 7 3929 8 4615 9 3634 11 4174 12 4880 1 4242 10 4017 3 3954
2071 -2.16148 3.65941 -0.846551 69 63 38 0.476066 3 1410 4 1066 9 2340 10 2651 2 1432
9588 -1.32474 1.89188 1.53752 114 103 61 0.404404 7 2573 8 2962 6 2345 9 3202
9549 -0.941282 4.77056 -0.744325 29 33 43 0.675016 11 4519 12 5208 6 3938 7 4171 8 5063 9 6582 5 3696
2032 -2.15342 1.09541 0.0782818 76 76 76 1.17892 13 2494 2 1095 6 2628
10372 -2.06105 0.605503 -0.271903 60 53 36 1.08781 8 5823 2 6841 9 5606 10 7334 11 5386 12 6170
8631 -6.46748 0.635342 0.0810502 27 27 26 1.17061 10 7725 12 6624 9 6268 11 5750
1114 -6.67837 2.14729 1.02472 11 12 14 0.751581 2 5593 3 4738 8 4616 11 4173 12 4867 1 4243
2072 -0.925222 4.51363 -0.826095 49 47 41 1.56314 8 1776 2 1447 6 1324 9 5873
9550 -0.94666 4.73377 -0.715721 35 44 76 1.17717 11 4518 12 5207 6 3937 7 4170 8 5809 9 7068 5 3622
2033 -3.18598 3.30324 -0.405967 12 12 8 1.82385 3 1025 10 2134 2 1096
2895 -2.0878 0.644974 -0.280402 15 14 11 0.310953 3 4487 5 3014 2 5463
10412 -1.98046 1.86206 1.55695 188 172 117 2.11752 5 3299 9 4984 6 2351 10 340 3 172 4 3851
2896 -2.0878 0.644974 -0.280402 15 14 11 0.310953 3 4488 5 3015 2 5464
10413 -2.2287 1.01195 0.039427 47 44 30 1.48942 7 2910 9 1599 4 3402 5 2608 6 3788 8 1249 10 4433 11 3058 12 985 2 5756 3 4132
8633 -5.99794 0.57932 -0.389273 34 34 36 0.593892 10 7092 9 6321 11 5802
1116 -6.67169 2.04389 0.913929 7 9 11 0.532795 2 5603 5 3380 6 3648 1 4245
2074 -0.583921 1.89092 -0.0556304 50 52 49 0.425244 3 1240 2 1454
9591 -0.517197 1.82275 1.53979 74 67 46 0.782322 7 2490 8 224 6 2265 5 173
9552 -3.2185 3.23187 -0.756676 127 119 80 1.06974 7 4088 12 5139 2 4843 3 4202 4 3465 5 2788 6 3926 8 4951 13 2608 1 3765 9 5578 10 6213 11 4500
2035 -3.16771 3.28431 -0.435716 14 13 9 2.19941 4 772 10 4528 2 1100 3 1026
2897 -2.0991 0.66521 -0.274203 45 42 33 1.05416 5 2944 9 2119 11 1488 2 5466 10 2704
10414 -2.1115 1.25798 -0.717295 67 60 42 1.6937 6 3332 9 2811 13 4118 5 1994 10 5335 3 3788 4 3126
10375 -2.08986 0.65285 -0.264844 50 44 32 1.23246 5 4771 8 5782 9 6440 2 7168 3 6122 10 7900 11 5898 12 6124
8634 -2.39008 0.870201 0.00449161 28 28 23 1.07582 11 5241 12 6044 9 6329
1117 -6.64236 2.17184 0.860281 10 10 11 1.22707 2 5606 3 3956 4 3248 5 3382 6 3650 8 3191 9 1021 11 2753 12 3269 1 4246 2 4482 10 4020
9553 -2.16059 1.07753 -0.187712 2 3 2 1.24014 7 4072 6 3894 4 4035 3 5378
2898 -2.07366 0.67444 -0.290231 32 28 23 0.476109 3 3581 5 1681 2 5467
10415 -2.21862 1.05485 -0.114689 68 67 62 1.38477 9 1884 13 3744 4 2513 5 1141 10 2245 11 1123 1 4550 2 3436 3 3104
10376 -2.03632 0.557587 -0.158539 101 88 50 1.15832 8 5751 2 7314 9 6397 10 8311 11 5858 12 6086
8635 -2.372 0.866161 0.00635409 24 23 19 1.54571 11 5240 12 6045 5 4659 9 6330
1118 -6.58599 2.31849 0.942216 13 14 15 0.7417 3 4756 4 3901 5 3383 6 3652 11 4175 12 3228 1 4248 10 3947
2076 -0.405438 2.15673 -0.140479 31 31 30 0.488893 3 1465 2 1490
9593 -0.250429 4.02234 -0.841942 60 56 43 0.882581 7 1706 12 1761 4 1499 3 1919 6 1506
9554 -2.39799 0.965766 -0.252757 31 29 20 1.03847 8 1425 10 2463 3 3278 2 3685
2899 -2.07366 0.67444 -0.290231 32 28 23 0.476109 3 3582 5 1682 2 5468
10416 -1.26884 1.95281 1.54678 103 92 57 1.31194 6 2347 7 287 8 372 4 2111 5 2209 9 3204 10 3441 3 2499
8636 -5.9165 0.3729 -0.640468 13 13 11 0.0419921 10 7788 9 6350
1119 -6.8593 1.80927 0.744077 11 13 15 0.88115 2 5610 5 3391 7 4708 8 4632 9 3633 10 4014 11 4187 12 3258 1 4251
9555 -0.919715 5.19938 -0.692079 42 42 40 1.59347 7 4096 12 5148 6 3852 11 4445 13 569 12 3759
2900 -3.02545 1.22381 -0.779566 38 35 30 1.01091 3 2289 2 5471
10417 -3.25802 3.21723 -0.00515081 22 21 15 1.75749 6 720 13 392 10 1862 2 829 4 582
10378 -2.05782 0.584332 -0.243443 78 64 33 1.49643 8 5780 2 7337 10 7899 11 5384 12 6122
8637 -5.86216 0.499612 -0.633386 24 25 25 0.230298 10 7789 9 6354 11 6197
1120 -6.74631 1.85011 0.787087 17 19 28 1.63012 2 4477 5 3392 7 3935 1 4252 9 1014
2078 0.633738 0.832223 0.243221 46 44 43 3.19776 6 1567 12 6210
9595 -0.855141 4.429 -0.839013 48 44 34 1.10232 11 3376 12 3949 6 1325 7 1555 8 1885 5 1485 9 5874
9556 -6.60647 2.22279 0.817406 10 10 9 1.32561 9 1024 10 1210 11 421 5 3399 6 3656 7 3938 12 3273 2 5608 4 3900
10379 -2.69891 1.15178 -0.771623 88 76 46 0.924766 3 6337 5 5345 11 6472 2 7498 4 5075 9 7567 10 8804 12 7383
8638 -2.05267 0.514332 -0.0267026 70 64 47 0.941573 10 8286 12 6671 9 6359
1121 -6.77472 1.88914 0.847879 9 9 9 1.06099 2 5601 3 4751 5 3376 7 3924 8 4613 9 3631 10 5778 11 4172 12 4878 1 4253
2079 -2.15657 1.04549 -0.166804 2 3 1 1.39599 10 2358 13 2684 2 1565
9557 -6.68138 2.11294 0.840231 16 19 24 1.14703 9 3635 10 4019 11 2752 2 4483 3 2614 5 2359 6 3649 8 858 12 3268 1 3431
2040 -0.27467 3.27716 -0.136381 11 11 11 2.25603 8 3552 2 1131
8639 -5.81684 0.298691 -0.71119 11 11 9 1.89996 10 7815 12 6684 9 6378
1122 -6.80999 1.89008 0.804521 11 12 17 1.18401 5 3393 7 3925 1 4254
2080 -2.15131 1.10251 -0.212462 49 46 40 2.217 13 921 2 1575 3 3184
9597 -1.07283 4.42407 -0.828201 42 41 36 0.885837 11 1267 12 1498 7 1550 8 1770 6 1321 9 4608 2 3466 1 3820
9558 -0.948517 4.81183 1.15698 23 23 22 0.81777 9 6115 12 5850 5 3342 6 3619 4 3878 7 3894 8 4583 13 3424
10381 -2.04912 0.567821 -0.173741 69 59 34 2.06477 8 7105 2 7569 9 7878 10 9005 11 6732 12 7670
8640 -2.2309 0.369139 -0.115112 8 8 6 0.306305 11 5836 12 6685
1123 -6.63506 2.25062 0.773023 16 18 23 0.824672 2 5609 7 3939 8 3218 1 4255
2904 -1.80495 1.26985 -0.438879 71 61 38 0.338819 4 2990 2 5484 3 3621
10421 -2.38764 1.1436 -0.588938 8 8 7 1.64797 5 4832 6 5372 13 5336 4 4522 3 5513 2 6835
8641 -2.18206 0.378646 -0.130895 62 55 37 1.06008 10 7858 11 5855 12 6082 9 6385
1124 -6.55061 2.26358 0.679922 13 14 17 0.681152 3 3970 4 3263 5 3400 6 2465 7 3940 11 461 1 4263
10383 -2.15757 0.488838 0.11779 87 77 45 0.322961 10 4409 8 1129 11 3027 12 935
8642 -2.93338 0.144963 -0.329411 45 42 39 0.457237 10 8303 9 6392
1125 -6.43652 2.18911 0.562287 11 12 16 1.3132 3 3980 5 4092 1 4264 10 5823
2083 -3.87609 2.41327 -0.852515 69 62 40 0.381285 3 1367 13 1139 2 1587
9600 -0.303531 1.91495 0.159998 83 78 62 1.27429 7 2887 11 841 12 1033 6 813 5 941
2906 -1.80442 1.27865 -0.456963 83 74 44 2.16653 4 1781 2 5486 3 2195 9 2504
10423 -2.41173 1.10838 -0.474953 10 10 8 1.39436 6 4820 4 4155 3 5462 12 3903 13 5314 7 4944 2 6503 1 5355
8643 -2.18459 0.384449 -0.15143 80 71 49 0.654472 10 8306 11 5857 12 6687 9 6395
1126 -6.47432 2.1907 0.536255 21 24 35 0.332514 7 2738 1 4265
2084 -1.96032 1.15142 -0.169238 64 60 43 1.44142 4 1014 2 1597 7 1214
8644 -2.15981 0.463198 -0.177446 61 56 43 0.600508 10 7862 11 5337 12 6120 9 6396
1127 -5.3667 1.92472 0.502094 24 29 42 2.50101 4 4576 1 4267
2085 -3.7451 2.4868 -0.849466 85 76 48 0.374545 3 1370 4 1038 2 1605 10 2488
9602 -2.1243 1.06561 0.208015 84 81 61 0.462626 7 775 6 694 12 873 2 3061 3 2798 4 2364 5 823 10 1682 1 4347 11 697 13 2402
9563 -1.97183 1.22707 -0.777029 47 43 30 1.41377 10 6741 13 3093 6 3432 9 2905 5 4524
2046 0.7072 2.80638 -0.203063 26 26 26 2.56052 5 1510 13 699
10386 -2.02675 0.550723 -0.435524 73 67 48 0.335653 9 2462 12 1810 8 1912 10 5218 11 1727
8645 -2.80316 0.0105424 -0.362851 38 38 38 0.995132 10 7266 9 6431
1128 -2.88957 3.49539 0.439991 38 35 24 1.65953 8 4647 9 5235 12 4904 1 4269 2 4520
9564 -0.589103 4.14579 -0.847195 55 52 42 0.362301 11 3455 12 4021 13 1014 6 3078 4 2749
2047 -2.05183 0.71682 0.0414558 48 44 34 0.38932 3 1096 2 1232
10387 -2.03396 0.569402 -0.497409 58 52 36 0.680795 9 2622 12 1813 8 1918 10 5221 11 1807
8646 -2.10505 0.397791 -0.293836 41 34 21 1.51083 10 7936 11 5926 12 6738 9 6437
2910 -2.07843 0.645488 -0.31807 36 35 30 0.616853 5 3017 2 5504
10427 -2.07464 0.929477 0.0930805 57 56 45 1.30195 4 2419 10 1994 11 913 3 2975 7 2851 12 974 6 2617 1 2618
8647 -2.13764 0.496126 -0.228619 67 61 44 0.190953 10 8334 11 5895 12 6121 9 6438
1130 -6.4597 1.69758 0.480148 14 14 13 1.4603 2 4502 8 938 9 3694 11 4202 1 4273 10 4084
2088 -2.83372 2.76722 -0.850706 78 70 43 0.320866 3 1637 5 1417 2 1638 6 1273
9605 -0.276539 1.98938 1.53932 99 92 64 0.590397 7 133 8 235 6 118 5 192
9566 -0.569897 1.64127 -0.184527 74 72 69 1.05092 7 3247 13 958 6 3063 9 2514 11 1373 12 1617 5 1605 4 1613
2049 -2.19476 0.795436 -0.024664 43 39 26 0.852906 3 1199 2 1240 5 1054
2911 -2.19954 0.815188 -0.431071 25 23 18 0.855981 3 3694 10 5008 2 5506
10428 -1.08579 2.15946 1.54389 91 84 54 1.68538 5 2210 9 3206 10 5492 6 274 8 374 4 2128 2 4391 3 2502
2089 -2.4783 3.2349 -0.848688 23 23 16 0.360249 3 1641 10 2646 2 1643
9606 -0.801786 1.65326 1.54131 140 131 87 0.637129 7 98 8 284 6 83 9 55 5 143
9567 -0.804469 4.55411 -0.840557 55 54 44 0.972138 11 3377 12 1659 6 2974 7 3261 8 5158 5 3791
2912 -2.05826 0.738392 -0.371469 30 29 24 1.06369 3 4579 2 5507
10429 -0.772314 4.57925 -0.840319 54 51 42 0.844373 5 1486 13 828 11 1432 12 1661 6 1326 7 1556 8 1887
2090 -2.40168 3.16301 -0.847908 85 76 41 0.299239 3 1643 10 2797 2 1644
9607 -0.853686 1.60717 1.54194 93 83 53 1.00547 7 95 8 280 6 80 9 111 5 2140
9568 -0.922222 4.41397 -0.836302 65 61 46 0.428289 11 3373 12 3946 6 2973 7 3260 8 3875 5 2913
2913 -2.24465 0.884864 -0.497833 40 37 26 2.15549 3 3738 10 2868 11 4682 12 5346 2 5508 8 5133 9 2472
10430 -2.48821 3.49708 -0.817793 95 92 73 0.661465 2 6958 3 5996 5 4996 9 7557 10 8624 1 5466 7 5633 11 6206 13 5548 4 4816 6 5783
10391 -2.06326 0.702937 -0.649303 57 51 37 0.609599 10 6724 8 4106 9 2789 11 3698 12 1937
2914 -2.24457 0.884836 -0.497541 45 40 27 1.32148 11 1627 12 5345 2 5509 9 2471
10431 -2.15698 1.08947 -0.312888 30 26 17 1.50267 2 6018 1 5313 5 3735 10 4820 11 3326 13 3972 3 5077 6 2912 7 3212
8651 -2.31135 0.251819 -0.401239 48 40 17 0.711825 10 7964 11 5945 12 6222 9 6497
2915 -1.817 1.293 -0.567043 69 60 34 1.06525 3 3763 2 5515 13 1642
10432 -2.11465 0.566111 0.0154212 83 73 49 1.66676 2 6373 8 3379 9 1683 1 5266 10 2098 11 3101 12 1084
10393 -2.03309 0.549631 -0.406686 79 70 47 0.865448 9 5771 12 5336 8 5123 10 8006 11 5470
8652 -2.16515 0.340428 -0.350578 54 44 17 0.389726 10 8383 11 5925 12 6764 9 6500
1135 -6.31951 1.80121 0.312526 4 4 3 1.54249 2 6272 3 4772 5 3423 7 3953 8 3258 9 5258 10 5855 11 2851 1 4284
2916 -2.2182 0.843224 -0.497105 35 32 23 0.714209 11 1625 2 5533 3 3737
10433 -6.49181 1.91372 0.403362 11 11 12 1.39275 2 4510 3 3988 5 3422 8 3238 9 3695 10 4135 11 4204 12 3323 1 4277 6 2478 7 2732 5 2402
10394 -2.04484 0.578552 -0.535308 11 12 11 1.33745 9 4650 8 5239 11 3645 10 3249
8653 -2.16515 0.340428 -0.350578 54 44 17 0.389726 10 8384 11 5924 12 6763 9 6501
1136 -6.29547 1.82151 0.320799 22 24 31 1.03448 2 4527 3 3989 5 3424 6 3684 7 3955 8 3259 9 1189 10 4136 11 2852 12 3322 1 4285
9572 -1.8489 1.17988 -0.273704 17 17 15 1.66224 7 1462 13 2806 4 3632 5 3743 6 2928 11 3340 12 1448 5 2874 9 2156 11 1351 7 4208 9 4337
2055 -0.436422 1.80528 0.0474377 21 22 25 0.78068 3 1155 2 1300
10395 -2.05296 0.533734 -0.275574 66 61 51 1.36794 9 6439 8 5822 10 8627 11 5897
8654 -2.07128 0.622059 -0.354689 58 53 39 0.839717 10 7395 11 5432 12 6172 9 6503
1137 -6.13611 1.81914 0.221426 23 27 43 0.98914 2 5638 3 4782 12 3361 1 4286
2095 -1.93048 3.50435 -0.846282 64 57 35 0.250499 3 1647 4 1262 10 2806 2 1654
9612 -2.50629 3.50743 -0.571237 18 18 15 1.89134 9 6418 13 5191 6 4618 10 7850 4 3997
9573 -2.20797 1.11473 -0.149947 71 70 67 1.14976 7 3035 9 1894 5 2709 11 1133 4 3459 6 2746
2056 -2.15908 0.759692 -0.0210002 36 33 22 0.141295 3 1196 2 1333
2918 -2.22648 1.23101 -0.687376 62 54 33 1.72207 5 3131 2 5535 11 1746 13 3028 9 2649 3 4615
10435 -6.83495 1.87449 0.909036 10 10 12 1.48552 5 2327 7 2703 8 848 11 2740 3 3947 2 2798 12 522 1 2154
10396 -2.15214 0.436288 -0.31892 66 59 40 0.500884 11 3491 12 3878 9 2263 10 6441 9 5683
8656 -2.27339 0.828605 -0.478943 74 66 41 0.853812 11 5438 12 6229 9 6510
1139 -6.29744 2.02091 0.203986 23 29 51 0.948245 4 3304 1 4288 11 2858
2097 -0.593252 4.46074 -0.866323 34 33 28 0.251371 3 1703 2 1677
9614 -2.25271 3.4538 1.06786 255 255 255 1.34306 8 6847 11 6374 3 5893 7 5789 2 7197 4 4747 5 5158 9 7479 12 7279 1 5553
2920 -1.44719 1.91565 -0.775946 60 56 39 0.831981 3 4633 10 6758 2 5539
10437 -1.42623 4.18994 -0.821109 100 97 89 0.554523 7 4869 8 5058 12 6150 2 5878 3 5010 1 4936
2098 -0.558627 1.68735 -0.0684015 46 44 35 0.621423 3 1425 2 1680
9576 -0.345558 1.89271 0.160709 79 74 64 1.14504 7 2885 11 3001 12 3534 6 2642 5 939
2921 -1.78615 1.58096 1.55015 125 114 71 1.39838 3 3842 5 2188 10 5503 2 5548 4 3149
10438 -1.6055 1.71981 1.554 188 172 117 1.22673 3 5233 10 6778 6 3558 9 4968 4 3823 5 3274
8658 -2.11563 0.371229 -0.395825 54 47 15 0.781361 10 8002 11 5954 12 6224 9 6542
1141 -2.14011 1.16678 0.348887 233 219 163 2.2481 2 2904 11 2864 1 4290 3 2718
2922 -1.82598 1.61106 1.54762 141 129 81 1.50004 3 4680 4 82 5 3267 10 5519 2 5549 6 2325
10439 -1.10574 2.16802 1.54432 114 105 65 1.44082 4 4286 2 6854 7 3851 9 6052 8 2965 5 4041 3 5241
8659 -2.11194 0.401643 -0.401564 48 40 25 1.54858 10 8003 11 5955 12 6765 9 6543
1142 -2.1385 1.16566 0.348657 228 213 163 2.1095 2 2905 1 4291 3 2719
2100 -2.1451 0.717713 -0.110833 11 11 11 1.79997 3 1515 2 1732
9617 -3.63986 1.33846 -0.850218 73 65 46 1.14324 11 5902 12 6185 9 7055 5 5085 6 5643 4 4888
8660 -2.10566 0.378752 -0.467071 49 42 16 0.271721 11 5971 12 6262 9 6544
1143 -2.98529 3.42854 0.198632 29 26 19 1.55526 2 5653 4 3313 6 3713 7 3976 9 3826 10 5905 11 2868 13 3511 1 4292 3 4021
10402 -1.05996 4.29678 -0.841503 58 54 41 0.943088 7 1551 8 1878 11 1430 12 1653 6 1322 9 5871 2 4914 1 4488
8661 -2.17074 0.430693 -0.45188 58 51 31 1.01983 11 5463 12 6263 9 6545
1144 -2.98547 3.42866 0.198661 30 27 20 1.67485 2 5654 4 3314 6 3714 7 3977 9 3827 10 5906 11 2869 13 3512 1 4293
2979 -2.131 0.656043 0.202983 48 41 26 0.869945 3 4064 5 2481 8 1054 11 2958 12 3407 2 5709
10496 0.0122115 5.40102 0.375432 31 31 33 0.681406 5 704 6 2526 13 236 11 4195 12 4927 4 478 7 2774 8 3273 2 605 3 645
10457 -2.39001 1.1324 -0.576639 62 56 39 1.17789 7 4351 6 4137 9 4557 13 2993 4 3763 12 3995 3 3697 5 1815 2 4218
8716 -1.67019 0.162696 -0.653378 50 35 17 0.438667 11 6044 12 6388 9 6753
10458 -2.40342 1.22874 -0.789579 96 84 48 2.14251 6 5977 10 8930 11 6628 3 6379
8717 -1.66195 0.152608 -0.706709 82 59 27 0.299721 11 6052 12 6877 9 6761
1200 -2.06599 0.744488 0.135706 61 30 19 1.55934 2 4714 3 2886 10 1972 1 4407 5 895
2158 -2.34472 1.15636 -0.586799 10 10 8 1.6421 3 2293 5 1816 2 2398
9675 -3.84908 1.40369 -0.844389 65 58 42 0.694256 11 3415 12 3899 9 4322 5 3812 6 4048 4 4150
9636 -2.20472 1.26784 0.24733 95 93 85 1.83081 9 6277 12 5958 2 6296 3 4818 4 4339 5 4618 8 1092 11 4262 13 4410 1 4838 6 3711 7 2793 6 4464 7 4737 9 5310 10 7037 12 4955
2981 -2.14901 0.724339 0.173737 15 14 10 2.35222 3 4854 11 2964 2 5713
10498 -0.836931 5.16529 0.468413 32 33 28 1.91715 2 581 4 418 8 962 7 647
10459 -2.11365 1.30162 -0.719835 96 81 44 1.01408 6 5922 11 6629 9 7806 4 5116
2942 -2.31498 3.47788 0.994357 254 254 254 1.01989 13 4351 2 5589 10 6887
8718 -1.66195 0.152608 -0.706709 82 59 27 0.299721 11 6053 12 6876 9 6762
1201 -2.08452 0.879118 0.129381 10 10 8 0.787514 2 4720 5 2535 10 1984 11 906 1 4411
2159 -2.34116 1.17983 -0.597792 62 58 47 0.550686 3 2294 5 1821 2 2401
9637 -6.67008 2.03471 1.03942 19 24 37 1.13475 10 6914 11 5716 1 4781 3 5264 5 4595 2 6253
2982 -2.11992 0.760861 0.183452 21 20 17 0.57022 3 2835 2 5714
10499 -0.62747 5.05011 -0.643774 27 27 26 1.81662 8 4969 11 5831 12 6113 7 4101 6 4622 4 4379 1 5200 8 5813
10460 0.596751 5.5772 1.14417 65 59 44 1.42372 6 5948 7 6013 8 7074 5 5366 13 5950
2160 -3.03782 1.77754 -1.06173 39 37 29 0.210539 6 1862 2 2412
9677 -1.8532 1.18186 -0.275151 16 16 14 1.20547 9 4338 11 3339 4 3633 5 2875 9 2155 10 6331 11 1350 3 4405 5 3744 6 2929 13 2805
9638 -2.2498 3.44383 0.992528 254 254 254 0.86507 11 6120 13 5442 4 4565 5 4590 6 5006 7 5256 8 6188 10 8169 12 7014 3 5573
2121 -2.09696 0.665871 -0.192525 27 25 16 0.885231 3 1932 2 2047
2983 -4.98935 1.91993 -0.284765 26 26 26 0.503124 8 3400 12 3509 2 5716 7 4018
10500 -4.95453 1.8898 1.50522 61 59 53 2.58848 3 6278 9 7658 10 8707 7 5921 11 6670 12 7474 2 7356 8 6842 1 5744 4 5026 4 5027
10461 -0.235917 1.8787 -0.113698 145 138 118 1.18974 6 5269 7 5364 5 4750 12 6734 11 6208
8720 -6.60744 0.583775 0.698668 45 44 46 0.816387 10 8183 12 7023 9 6845
1203 -2.08841 0.941615 0.108873 9 10 7 0.810848 2 4730 3 2901 5 907 11 910 1 4415 4 2418 6 2618 10 4429
9639 -2.25137 3.6058 1.10569 120 109 62 1.51789 7 5577 8 6588 9 6827 5 4580 6 4997 12 7008 13 5065 4 3874 11 5697
2122 -3.51509 1.52106 -0.852022 64 57 39 0.781825 3 1950 2 2057 13 1494
2984 -2.09429 0.902017 0.130397 8 8 7 1.69982 3 5321 8 3345 9 3904 10 6003 12 5022 2 5718 5 3508
10462 -2.09403 0.909823 0.140835 103 100 79 1.91259 6 5045 9 6298 11 5768 12 6642 5 4631 8 4731 2 6670 10 7072 1 5590
8721 -6.61233 0.57674 0.521828 21 20 15 0.410154 10 7702 12 7028 9 6860
1204 -2.08297 0.914968 0.100554 11 12 10 0.733758 2 4725 3 2905 4 2411 5 990 10 4428 1 4416 6 760
2162 -0.359918 1.606 -0.179748 57 52 38 3.33852 4 1830 2 2480
9679 -0.888768 5.18849 -0.684389 40 41 40 1.0728 8 4967 13 3629 11 4446 6 3853 7 4098 5 3626
10463 -2.12692 0.977282 -0.778205 70 62 38 0.479037 13 4150 5 4005 12 1944 10 6734 11 1890 9 2901
8722 -6.55888 0.594009 0.471898 43 44 45 0.570697 10 7703 12 7035 9 6861
1205 -2.21822 1.07007 0.0383167 14 14 11 2.18765 2 4736 1 4421 3 2982 10 4436
9641 -1.71802 1.09253 -0.777352 110 99 64 0.458052 9 5989 5 4550 11 4821 13 4949
2124 -2.36707 1.11252 -0.409518 12 11 8 1.24867 13 1385 2 2062 3 1953
2986 -2.11588 1.01301 0.120462 20 20 17 1.74483 3 4873 4 3974 5 3513 11 2984
10464 -2.33048 0.9238 -0.778914 82 72 42 0.463569 12 1942 5 3984 10 6658 11 3660 9 4733
2947 -6.69535 2.11586 0.943962 8 9 11 1.40455 3 4754 5 4082 6 4435 7 3930 8 3189 2 5605 4 3898
8723 -6.46653 0.517375 0.277929 31 31 30 0.845709 10 8206 12 7038 9 6871
1206 -2.22005 1.07137 0.0381485 16 15 13 2.13646 2 4737 1 4422 10 4437
9642 -2.08653 1.05992 -0.781625 84 75 45 0.880109 13 4937 5 4523 9 5960 12 4140 10 6735 11 4794
2125 -2.14714 1.20061 -0.381909 54 49 36 1.75771 2 2081 3 1974 4 2784 8 1712
2987 -2.10791 1.01001 0.121283 20 20 17 1.68262 3 4874 4 3975 5 3514 10 6083 11 2985 2 5724
10465 -1.37892 1.83566 1.54349 145 133 89 0.763392 7 3848 8 2956 5 3290 6 3573 9 4959 4 3837 10 6771 3 4692
2948 -6.65199 2.22186 0.876201 12 12 13 1.50261 6 3653 7 3931 8 3192 9 3636 10 4021 11 2760 2 5607 4 3899
8724 -6.46129 0.55749 0.166506 17 17 16 0.609978 10 7724 12 7039 9 6872 11 6143
1207 -2.19998 1.07221 0.0479009 14 15 13 2.1374 5 4171 1 4423
9643 -2.21378 0.855608 -0.667189 49 45 34 0.742629 8 5251 12 5429 5 4520 9 5846 10 7536 11 4764
2126 -2.17394 1.19508 -0.420607 23 22 15 0.291624 10 2743 2 2088 3 3503
2988 -2.11795 1.04538 0.107068 72 71 68 1.53866 5 2546 10 6084 13 3583 2 5725 3 4114 11 799
10466 -2.13301 1.21663 -0.43602 9 9 7 0.954948 11 1518 5 1566 6 4062 12 1590 7 3323 8 1722
8725 -4.39767 0.723947 0.371921 35 34 31 2.90226 11 6683 12 5927 9 6873 10 8958
1208 -2.19998 1.07221 0.0479009 14 15 13 2.1374 5 4170 1 4424
9644 -2.06157 1.26709 -0.77403 7 7 6 0.808665 11 4770 5 4511 9 4747 10 6736 13 4124 5 3967
2127 -2.21848 1.25183 -0.43025 43 40 30 3.02965 3 1984 2 2092
10467 -2.14389 3.6298 1.05129 224 210 145 1.61792 5 5369 13 6026 4 5081 7 6010 8 7075 9 7929 3 6281
2950 -6.66027 2.25327 0.769903 16 16 17 1.3063 3 4761 4 3903 6 4442 10 5781 12 4881 11 4192
8726 -4.91464 1.91798 0.222799 18 21 29 2.55054 10 5900 12 5957 1 4815 6 4460 2 6280
9645 -2.07158 0.66657 -0.482555 54 49 37 1.82429 8 3960 5 4501 10 5228 11 3585 12 4071
2128 -2.12485 1.19895 -0.39119 60 55 38 1.94721 4 2869 2 2094
2990 -2.04319 0.743384 0.154579 73 24 13 0.875772 5 2527 10 4364 2 5747
10468 -2.14253 1.06772 -0.228159 6 7 4 1.85556 6 5781 7 5629 12 7103 10 8320 13 5752 4 4833
2951 -6.4619 2.25985 0.703803 16 18 22 1.14648 4 3906 11 4194 2 5611
8727 0.00941255 0.130746 0.354876 29 29 29 1.7549 11 853 9 6910
9646 -2.07671 0.658332 -0.483271 57 51 39 1.26872 8 1923 5 4500 9 4550 10 5227 11 1731 12 1818
2129 -2.90336 1.95021 -0.89138 46 41 27 2.14311 5 4820 2 2101 4 4698
10469 -2.13619 1.1072 -0.194587 4 4 3 0.744797 6 3897 8 3528 4 4395 5 4281 9 4215 11 4490 13 4727 3 4985
8728 -6.30599 0.379578 -0.34289 10 10 7 0.443384 10 8238 12 7073 9 6930
9647 -2.3102 1.19884 -0.724457 70 62 40 1.95962 10 6594 11 4727 5 4484 6 4223 7 3483 9 4660 13 4907 3 5215 4 4262 12 4083
2130 -2.34173 2.23735 -0.851319 78 69 40 0.637716 3 2027 10 3025 2 2119
10470 -2.67903 1.11197 -0.777105 35 32 22 0.598879 6 3322 7 3479 4 3779 9 2644 5 3123 10 5117 2 6206 3 4609
2953 -6.16455 1.87442 0.283435 13 13 12 1.01263 3 4774 9 3738 11 4221 12 4919 2 5627
8729 -2.10565 0.846034 0.0801493 78 71 49 3.36078 11 6163 9 6938 12 7067
1212 -0.473033 5.11093 -0.641294 16 16 16 1.75369 4 3999 7 4102 1 4431 5 3627
9648 -2.22104 0.850196 -0.583458 42 37 27 0.710428 8 3967 12 4077 5 4479 9 4653 10 6588 11 3593
2993 -2.10901 0.881378 0.0980809 55 57 57 0.887689 10 6077 2 5752 3 4131
10471 -0.564285 5.07371 1.06696 158 145 98 1.53528 6 6036 13 6075 4 5122 2 7507 3 6385
9649 -2.09532 0.6605 -0.435219 47 45 34 0.762428 8 5129 5 4475 10 7442 11 4678 12 5341 9 5772
2132 -2.15344 2.42301 -0.84602 96 84 43 0.187585 3 2036 2 2129 13 1331
2994 -2.09159 0.881626 0.0932466 6 7 5 0.874055 3 4894 8 1164 10 4431 2 5753 4 3982 5 2600
10472 -0.564398 5.07572 1.06772 162 148 99 1.62919 6 6035 13 6074 11 6881 4 5121 2 7506 3 6384
8731 -5.98733 0.24383 -0.573646 35 36 41 0.109013 10 8268 12 7329 9 6947
1214 -2.09163 0.644016 0.12653 60 53 35 1.00108 2 4707 3 2945 5 958 10 1962 1 4436
9650 -1.81089 1.28136 -0.512806 12 13 11 0.802651 11 4696 13 4893 12 5366 6 4901 9 5793 13 4076 5 4467 4 4242 3 5189 10 6545 2 6579
10473 -2.86567 3.51453 -0.659057 93 86 58 0.824472 5 5204 10 8608 13 5724 3 5964 6 5772 9 7539 11 6191 12 7104 2 6940 5 4979 7 5824 13 5498
8732 -2.20794 0.408872 -0.00479045 13 13 13 0.686783 11 6185 12 7086 9 6949
1215 -2.08341 0.661979 0.126767 64 57 36 0.676156 2 3175 10 1966 1 4437 3 2946 5 959 11 889
2173 -1.90752 1.77339 -0.777239 79 69 39 0.456575 3 2402 10 3285 2 2548
9651 -2.09434 0.740674 -0.444136 43 38 25 1.13289 8 1828 12 3991 5 4449 11 3508 10 6530
2134 -1.54781 2.71616 -0.848563 51 45 28 0.579704 3 2040 10 3189 2 2137
10474 -6.59057 2.05532 0.506913 22 23 28 1.42463 9 5232 10 6974 3 5587 4 4759 6 5490 7 5267 11 5736 12 5922 1 5133
2957 0.215651 5.8865 0.195656 24 26 26 1.70084 6 4471 2 5633 5 4113
8733 -2.2782 0.356531 -0.0233406 59 54 42 0.920718 10 7823 11 5819 12 6669 9 6950
1216 -2.06099 0.718152 0.13153 65 56 38 0.734061 2 3178 3 924 1 4438 5 887
2997 -2.12728 0.585696 0.0908759 12 13 11 0.377083 12 945 2 5774 10 4416
10475 -1.80333 1.22003 -0.384847 13 14 12 0.985819 4 3721 9 4462 11 3435 12 3918 8 1729 13 4033 5 3880 6 4077 10 6468 2 6107 3 5150
2958 -5.81147 1.92816 0.0754907 24 29 49 1.07903 4 3932 6 4458 2 5646
8734 -2.2002 0.41294 -0.0248256 61 56 43 0.432892 10 8283 11 6186 12 7087 9 6952
9653 -3.59304 1.37247 -0.844164 70 62 43 1.29177 11 4619 12 5252 9 5698 5 4413 6 4868 4 4461
2136 -1.55059 2.77765 -0.848741 66 57 34 0.637733 3 2041 4 1609 2 2139
10476 -2.08033 0.898086 0.0951351 7 8 6 0.539324 6 2613 9 1593 11 907 12 970 4 3396 8 1165 10 6080 3 4895
2959 -5.80279 2.02796 0.0896163 7 7 6 0.791065 3 4791 8 4700 2 5649 10 5896
8735 -5.84522 0.197711 -0.733094 33 33 34 0.342791 10 8279 12 7096 9 6972
1218 -2.0525 0.731571 0.115007 66 62 43 0.357134 2 4715 3 4127 5 2589 8 1149 10 1973 11 894 1 4440
2589 -1.80909 1.26077 -0.550026 17 17 15 0.573472 3 3762 10 3172 2 4314
10106 -3.07735 2.94541 -0.855785 116 100 49 0.41687 6 2948 9 2180 12 1473 8 1739 2 3594 3 3209 5 1413 10 4841 1 2793 4 2707 11 1362 13 2717
2999 -2.19832 0.775762 0.0423115 58 49 25 1.74296 3 5336 10 6112 2 5778
10477 -2.38916 1.14918 -0.623228 79 72 47 1.04198 11 1636 12 1717 10 3003 13 3019 3 4585 4 1897 6 3220
2960 -1.48479 1.66816 0.311826 18 18 13 3.6586 3 4022 5 757
8736 -2.11574 0.487915 -0.0867157 17 17 17 2.12748 10 8292 11 5837 12 6691 9 6978
1219 -2.06248 0.762451 0.0954131 117 112 77 0.599992 2 4776 3 2956 5 971 8 1154 9 1586 10 1975 11 899 12 960 1 4441
2590 -1.81076 1.79808 -0.775143 90 77 41 0.364057 3 2404 4 2009 10 3288 2 4315
10107 -3.19048 2.98278 -0.850014 108 93 46 0.428177 4 2611 5 2889 6 2843 11 1255 3 3206 9 4354 10 4753 13 2716 2 4893
10068 -6.6653 1.91507 0.483801 11 11 12 0.69933 6 2476 10 4085 2 4508 3 3976 7 2731 8 939 11 2814 12 3293 1 3457 5 596
9655 -3.85813 1.42406 -0.854881 38 35 26 1.17315 9 4323 12 3900 11 4615 5 4369 6 4051 4 4151
3000 -2.21749 1.03013 -0.00425462 38 39 32 0.489628 3 4155 2 5782 10 4526
10478 -5.58917 2.01718 0.515737 17 20 24 0.920308 5 603 8 950 3 2658 6 2481 7 2739
2961 -2.75285 3.63109 0.193498 26 25 20 2.2696 1 2293 3 4795 4 3925 11 4230
8737 -2.11574 0.487915 -0.0867157 17 17 17 2.12748 10 8293 11 5838 12 6692 9 6979
1220 -2.07111 0.903367 0.0932544 25 24 19 0.535082 2 4723 3 2966 6 761 10 1992 1 4446 4 2456
2591 -1.81076 1.79808 -0.775143 90 77 41 0.364057 3 2403 4 2008 10 3287 2 4316
10108 -3.6744 2.49391 -0.850556 94 82 46 0.642466 7 1357 10 6266 3 3195 4 2602 5 2876 6 2941 8 1617 9 2165 11 3347 12 1464 13 2810 2 4996
2178 -2.06519 1.43059 1.54412 77 70 46 0.228889 4 75 10 293 2 2610 3 61
9656 -3.94287 1.42956 -0.84966 36 33 25 0.738387 11 4612 12 3896 9 4321 5 4368 6 4818 4 4440
2139 -2.0575 0.697109 -0.23377 33 33 29 0.55854 3 3477 5 1516 2 2196
10479 -2.88927 2.77589 -0.852997 46 40 26 0.49192 5 1416 7 1494 11 1363 3 1636 4 1251 6 1272 9 2323 10 2636 13 1172 2 1634 1 1286
8738 -2.17933 0.445191 -0.119583 79 69 45 1.14565 10 8604 11 6199 12 6690 9 6980
1221 -3.34098 3.1807 -0.721421 62 58 42 0.93211 2 5813 3 4199 4 3461 5 3617 6 3840 7 4084 8 3541 12 3748 1 4449 2 4840 10 6210
2592 -0.402775 1.25076 -0.0677423 41 37 27 1.24468 3 2244 2 4326
9669 -2.08875 0.651945 -0.503335 42 40 31 0.467779 8 3961 5 3954 9 2468 10 5225 11 3584 12 1819
2152 -1.73362 2.1831 -0.77208 93 82 46 0.157489 10 3177 2 2314
3014 -3.14802 3.08812 -0.782021 96 92 64 0.279611 3 4273 10 6274 2 5867
10492 -2.14064 1.21441 -0.393573 24 22 16 1.66466 5 4373 10 7349 7 4889 9 4334 11 3334 12 3826 2 6791 13 4816 1 5527 4 4158
8751 -2.35118 0.2161 -0.514148 48 44 30 1.78322 10 8668 11 6287 12 7170 9 7081
1234 -2.11309 0.611792 0.0979947 58 54 40 2.10947 2 4767 10 1963 1 4460
2605 -1.8209 1.63974 1.54885 121 110 62 1.19413 3 3843 10 5520 2 4375
10122 -2.13126 1.07771 0.189386 94 86 57 0.848101 6 698 7 2826 13 2404 2 898 3 2850 10 1846 1 2462 4 2390 5 2500
9670 -2.23922 1.2295 -0.69603 134 119 73 0.900328 10 6595 11 3598 5 3941 6 4914 7 4428 9 4663 4 4528 12 4084
2153 -1.66942 2.25818 -0.77839 55 51 33 0.423542 3 2220 10 3181 2 2316
3015 -2.64092 3.40647 -0.799891 86 83 66 0.671046 3 4998 4 4058 5 4293 9 6474 10 7304 12 5202 13 3755 2 5871
10493 -2.11737 2.40253 -0.85581 101 88 47 1.8938 3 6250 4 5001 10 8807 2 7298 1 5725
8752 -2.35118 0.2161 -0.514148 48 44 30 1.78322 11 6288 12 7171 9 7082 10 8669
1235 -2.09547 0.630598 0.0996619 46 43 34 1.00639 2 4769 5 961 1 4461
2606 -1.67008 1.68334 1.54492 100 89 54 0.50714 3 3846 4 2095 10 5505 2 4379 5 2192 6 250 9 245 7 264
10123 -2.15865 1.18074 0.212474 48 46 32 1.32105 5 837 11 704 3 2801 10 4285 12 883 13 3557 2 4606 4 567
10084 -1.79241 1.2467 -0.450527 29 29 26 0.600967 9 2501 11 3536 13 2944 7 3416 12 1736 4 3728 5 3060 6 3150 10 5130 2 4251 3 3625
9671 -1.81994 1.28748 -0.541522 12 13 10 0.596559 9 5852 11 4697 13 4077 6 4902 12 5367 4 4243 5 3914 10 7505 2 6578 3 5191 13 4894
2154 -1.541 2.33523 -0.775812 53 48 30 0.597983 10 3291 2 2318
3016 -2.57976 3.44605 -0.777351 135 128 87 0.363635 3 4999 4 4059 6 3933 11 4511 2 5872 5 3684 13 3756
10494 -2.54363 3.19842 -0.833523 31 30 25 1.66247 6 6047 13 6123 3 6424 4 5153 7 6137
2977 -2.10882 0.574175 0.213591 93 81 47 0.337433 8 1051 10 4353 11 2950 12 826 2 5707 9 1438
8753 -2.22634 0.300554 -0.48853 29 26 14 0.874841 10 8671 11 6289 12 6787 9 7083
1236 -2.09899 0.632741 0.088707 59 56 49 1.0247 2 3249 10 1964 1 4462
10085 -2.44119 2.17861 -0.851354 110 96 51 0.504209 4 2896 5 3067 11 1667 9 4582 2 3992 3 3529 10 5044 13 2949 1 4058
10495 -0.204333 5.26321 1.16514 30 29 25 0.688595 5 448 7 477 3 333 2 319 8 708 12 257 11 2585
8754 -2.17001 0.455315 -0.421359 12 12 12 0.468522 11 5956 12 6767 9 7084
8755 -2.17001 0.455315 -0.421359 12 12 12 0.468522 11 5957 12 6768 9 7085
1238 -3.07569 3.12805 -0.779385 122 116 79 0.831276 5 3673 7 4158 8 3650 9 5640 11 4501 10 6275 1 4477 3 4275
10497 -4.81969 1.86179 0.55669 14 15 17 2.04062 8 7078 10 8724 2 7368 7 6076 1 5674 4 5084
8756 -2.16447 0.461229 -0.435821 60 54 38 0.58085 10 8005 11 5958 12 6227 9 7086
10088 -1.84449 1.17492 -0.281146 27 26 22 0.538072 4 2790 5 1381 7 1464 13 1306 2 1975 3 3420 1 3167
10299 -1.62961 4.06563 -0.656887 104 99 83 0.585843 2 1258 3 1230 1 1046 9 2191 10 4850
2782 -2.29756 1.08908 -0.275662 13 12 9 0.590766 13 3903 2 5081
8558 -2.06425 0.514057 -0.330842 54 50 41 0.411955 10 7391 11 4675 12 5232 9 5688
1041 -1.91351 2.72054 -0.850466 72 62 33 0.879705 2 3868 1 4009 3 3539 10 5150
8757 -2.13558 0.489903 -0.478065 51 46 34 1.17065 10 8034 12 6265 9 7087
1240 -2.7819 3.31153 -0.794747 85 82 64 0.972502 2 4900 3 4283 5 3680 6 3930 7 4163 9 5646 11 4509 13 3855 1 4479 4 4056 12 5200 9 6473
2611 -1.4621 1.82887 1.54279 108 98 60 0.886878 3 3855 10 5509 2 4385
10089 -1.84342 1.17434 -0.280886 25 25 21 0.419119 4 2789 7 1463 13 1305 5 1380 10 2615 2 1976 3 3419
10300 -1.62961 4.06563 -0.656887 104 99 83 0.585843 2 1259 3 1229 1 1047 9 2192 10 4849
8559 -2.04976 0.570169 -0.371009 11 11 11 0.976822 10 6450 11 5433
1042 -1.31977 3.04161 -0.847509 97 84 47 0.425001 2 3876 1 4011
3021 -2.0701 0.679443 -0.0650953 45 40 32 0.617806 3 4973 5 3595 2 5901
8758 -2.30507 0.208469 -0.520753 17 21 17 0.352313 10 8670 11 6297 12 6804 9 7115
10301 -2.37466 3.57992 0.219673 116 103 57 0.937519 2 2956 4 2340 5 3461 6 2559 7 3983 8 1102 9 1343 10 1556 13 2357 1 2300 3 706 11 619 12 3374
2784 -4.7909 2.68498 -1.32666 45 42 28 0.998191 5 4379 2 5088
3022 -2.16291 1.04521 -0.187766 2 3 1 0.873587 5 2761 2 5906 4 3487
8759 -2.09431 0.362638 -0.477243 33 27 13 0.460197 12 7172 9 7116
1242 -2.73166 3.34816 -0.774755 127 120 82 0.455031 2 5870 7 4864 1 4481
2613 -1.39059 1.85058 1.53836 72 66 43 0.4981 10 3439 2 4387
10130 -6.15631 2.27445 0.387028 11 14 23 0.694194 6 534 10 1412 2 2894 3 2708 4 2296 5 2414 1 2234
2102 -2.34096 1.09445 -0.304419 2 3 1 2.61938 3 3291 2 1769
2925 -1.56998 1.74245 1.5431 86 78 52 0.612744 3 3849 4 3156 10 5506 2 5552
10442 -2.03799 0.558693 -0.491277 88 77 49 0.987364 12 6267 8 6384 9 7117 10 8673 11 5976
10403 -1.1104 4.39518 -0.82712 52 50 45 1.10639 8 1767 11 1265 6 1320 9 4607 2 1441 1 1087
8662 -2.10693 0.410521 -0.454309 14 14 11 2.45885 10 5210 12 6788 9 6546
9632 -2.14836 1.08332 -0.342251 30 29 22 1.61407 6 3981 9 6459 5 4777 10 8338 11 5869
10455 -0.910687 4.80693 -0.666551 73 73 83 0.224458 11 6193 12 7106 6 5548 7 5627 8 6689 5 4980
8714 -1.83026 0.415476 -0.735399 104 87 50 0.355075 11 5563 12 6375 9 6743
1197 -2.10842 0.594924 0.191447 41 36 25 0.597726 2 4647 10 1800 11 759 12 831 1 4398
