# 3D point list with one line of data per point:
#   POINT3D_ID, X, Y, Z, R, G, B, ERROR, TRACK[] as (IMAGE_ID, POINT2D_IDX)
# Number of points: 633, mean track length: 3.36069
696 2.67936 2.97315 -1.00112 106 97 69 0.878065 2 2620 3 3342 4 3509 6 3614 1 2437 5 3743
8172 3.07174 3.18964 -1.27557 138 130 101 1.57974 8 4156 9 3770 6 4023 7 4045 5 3711
8211 2.59416 3.1464 -1.2317 127 119 93 0.225995 8 1141 7 2272 5 685 6 755 7 2271 4 469
694 2.61392 2.91492 -1.50747 151 146 124 0.552851 2 2607 3 3315 4 3485 5 3732 6 4094 1 2429
2948 4.30376 3.89555 0.886478 61 56 35 1.11506 4 3490 5 4250 3 3430
8171 3.03608 2.99654 -1.48927 41 39 29 1.1303 8 4545 9 4116 11 4696 10 4442 7 4048 6 270
8210 2.74061 3.52593 1.40328 164 157 139 0.208364 10 2332 11 2386 6 2185 7 2286 8 2348 9 2144 5 887
693 2.63926 2.86614 -1.51808 181 178 164 0.421214 2 2606 3 3303 4 3484 5 3731 6 4095 1 2428 7 4160
2947 4.26904 3.86743 0.899461 137 134 110 0.512973 5 4249 6 3974 3 3429
8170 2.9075 3.10837 -0.529134 149 141 108 0.292363 8 3712 9 2818 4 1811 5 2997 7 4105 3 306
8209 2.58698 3.07224 -0.00618304 142 136 105 0.11723 9 1233 10 1390 7 2303 8 2490 6 793
692 4.40799 2.60038 -0.494851 76 71 50 0.464012 2 2585 3 2537 1 2421 4 2637
2946 4.2688 3.86713 0.899143 137 133 109 0.513342 4 3489 5 4248 6 3973 3 3428
8208 2.43511 3.01784 -1.99546 114 110 96 0.40196 9 2328 7 2419 8 3328 6 844
691 4.47106 2.59205 -0.45116 62 58 39 0.156597 2 2584 3 2536 1 2419
2945 2.62199 3.07036 0.535092 134 127 90 3.63473 5 632 3 3419
8168 2.79891 3.35838 0.372959 122 111 78 0.616938 10 3676 11 3888 7 4144 8 4275
8207 2.21989 5.65473 3.91438 125 119 97 0.419291 8 2409 11 2023 7 2533 9 2069 10 2019 6 2575
690 4.46792 2.57763 -0.434066 124 121 100 0.456533 2 2583 3 2535 1 2418 4 3359
2944 2.49693 3.06844 -1.51997 178 175 163 0.743836 4 4134 5 4372 6 4517
8206 2.21125 5.60646 3.97254 119 113 95 0.588203 8 2408 10 2018 11 3020 7 2570 9 2068 6 2574
689 4.52037 2.57 -0.403281 132 131 113 0.245559 2 2582 3 3257 1 2417 4 3357
2943 2.47793 3.10708 -1.32898 161 154 132 1.1675 4 3590 3 3402 5 3821 8 3860
2941 2.73713 3.09256 -0.0963466 160 152 118 0.838024 5 3756 6 4104 7 4519 4 2839
8164 2.67725 3.02415 -0.327626 158 150 126 0.565242 9 3484 10 3767 11 3978 7 4173 8 4296 6 2965
8203 3.06515 3.00936 -1.36113 119 109 83 0.587485 10 3072 11 3316 7 2875 8 2940 9 2731 6 212
686 2.72358 2.77127 -1.50488 153 147 126 0.972263 3 3293 1 2412 2 3308 6 4045 7 4490 8 4631 4 4053 9 3498
2940 2.68556 3.10145 -0.0260637 154 147 115 1.20929 4 4514 3 3385
8202 3.03989 2.99281 -1.41935 110 101 70 1.55903 8 3645 9 2733 7 2879 6 263 10 2240 11 2457
685 2.70509 2.70734 -2.00544 106 102 85 1.04776 2 3304 1 2406 3 3286 4 4047 5 4245
684 2.67541 2.77367 -1.99014 113 107 89 1.00991 4 3432 5 4268 1 2405 3 3296 6 4046
2938 7.78952 5.12217 3.70514 180 169 126 0.341738 5 4205 3 3378 4 3434
2935 2.80761 3.09901 -0.637801 150 144 118 1.09672 4 3528 5 3739 6 3607 7 3670 3 3368
8197 2.7479 2.68189 -1.58169 164 161 148 0.338837 8 3197 10 2589 9 2286 6 1884 7 2968 5 198
680 2.74037 2.6849 -1.63093 143 136 111 0.7344 3 4334 1 2400
8196 2.76317 2.92298 -1.3926 152 146 124 0.515228 8 2270 7 3019 3 1684 4 1790 5 2979 6 2907 2 255
679 4.81981 2.16199 -0.267543 112 105 75 0.048715 2 3840 1 2397
2933 2.87063 3.0834 -0.186159 100 91 62 0.158462 4 3524 5 2990 3 3365 6 1939
8156 3.96901 4.28176 1.09117 137 133 115 0.741368 8 4484 7 4419 9 4034 10 4292 11 4501
8195 2.7823 3.25647 0.175431 143 135 105 0.1668 9 2873 7 3080 8 3166 10 3131 11 3332
678 5.10052 2.05862 0.222731 60 56 37 0.108478 2 3839 1 2395
2932 2.09532 2.7585 -0.225694 171 166 143 3.35541 5 1008 3 3360
8155 3.10024 3.0381 -1.41204 136 129 105 0.465963 8 4782 9 4107 9 4329 11 4906 7 4429 6 3502
2931 4.49768 3.71323 0.777923 135 130 98 0.978646 4 1769 6 3451
8154 2.98428 2.95743 -1.47984 153 145 122 1.18096 10 4462 11 4709 7 4438 8 4546 9 4129 6 3524
8193 2.53719 5.41844 3.96566 132 126 107 0.496144 8 3198 10 2924 7 3272 9 1898 6 3272
676 1.29084 2.75019 -0.701833 60 57 41 2.33608 4 3311 1 2366
2930 4.40355 3.67966 0.780594 131 127 97 0.426086 4 4078 5 4231 6 4389 3 3358
8192 2.5466 5.4657 3.90849 134 127 105 0.442151 8 3199 9 1900 10 1978 7 3273 5 2690 6 2476
675 1.72834 4.796 -2.01366 56 52 43 2.44723 2 2509 3 2521 4 1623 1 2343
2929 2.61302 2.9103 0.0521426 153 147 120 1.87488 5 4693 3 3357
8191 1.96307 5.65936 3.37813 133 125 97 0.758552 8 3329 7 3358 11 3741 10 3604
674 2.56035 5.45954 -1.98914 27 27 22 0.0687073 1 2337 3 1458
8190 4.26475 3.91629 0.811672 86 80 59 0.662776 8 4036 7 3468 9 3626 6 2769
673 2.86246 5.63509 0.179095 144 139 113 0.403941 2 2480 1 2335 3 1438
2927 2.66594 2.99957 -1.01311 125 119 92 1.59169 4 3512 7 3707 3 3345
8189 3.43993 3.20564 -1.54135 164 159 142 1.05062 10 3982 11 3695 7 3478 8 3549 6 2778
672 2.82599 5.70025 0.347234 146 140 113 0.407489 2 2477 1 2334 4 1486
8188 3.25897 3.04754 -1.98496 104 96 75 1.05058 8 4095 7 3490 9 3730 11 4649 10 4387
671 2.84436 5.7057 1.05726 124 119 88 0.990364 5 3455 4 3294 1 2332
2925 2.67074 2.92671 -0.941073 125 115 85 1.58698 3 3338 8 3794 10 1411
8187 3.13532 3.00592 -1.50842 133 127 103 0.583813 8 3609 9 3314 10 3625 11 3869 7 3520 6 1810
670 2.92078 5.73346 1.14802 59 53 31 1.0134 2 3212 1 2330
2924 2.87736 3.04743 -0.598534 144 139 115 0.308347 4 3502 5 3723 3 3335
8186 3.08491 3.20163 -1.26506 149 141 111 0.570405 10 3598 11 3216 7 3541 8 3624 9 3306 6 2840
669 2.85166 5.65319 1.05878 116 110 84 0.221515 2 1524 3 1437 4 1484 5 1421 1 2329
8185 2.99232 3.20484 -1.25294 104 95 66 0.590463 10 3622 11 3263 7 3584 9 2729 5 340 6 2870
668 2.36239 5.23072 -2.00827 40 37 29 0.624801 2 1537 1 2319 3 1464
2922 4.53822 3.55584 0.156035 143 140 112 0.530839 4 3425 3 3327 5 4219
8184 2.8829 2.9035 -1.48162 156 150 129 1.00286 8 3697 7 3585 10 3731 6 1880 5 1858
667 2.57825 5.37004 -1.99627 39 37 30 0.458152 2 1533 1 2312 3 1448
2921 4.54502 3.5604 0.361337 136 132 103 0.135742 4 3420 5 3617 3 3324
8183 2.81405 3.27163 0.206672 181 173 150 1.42169 8 4257 9 3835 10 4109 11 3921 7 3686 6 2038
666 2.90222 5.58205 -0.660516 93 87 66 0.0779857 2 1505 1 2310
2920 4.54142 3.55715 0.562872 121 116 88 1.30602 4 3415 5 3631 6 2724 3 3323
8182 2.61936 3.06275 -1.32043 154 146 118 0.5363 8 3800 9 2930 10 2490 7 3739 5 3082
665 1.69585 4.57632 -2.01011 59 54 42 0.13693 2 2495 3 2508 1 2304
2919 2.61649 2.92208 -1.51175 154 148 126 1.25921 7 4528 8 4303
663 2.63756 5.28458 -1.98485 42 39 32 0.475255 2 2462 1 2300 3 1422
8179 2.3555 5.74264 3.31644 81 72 47 0.526381 10 2900 11 2974 6 4291 7 3821 9 2787 5 4877 4 4698
662 2.65689 5.26813 -1.99912 28 28 23 0.289395 2 2460 1 2299 3 2452
2916 4.66041 3.14876 0.792798 79 73 49 0.402735 4 3388 5 4195 3 3299
661 2.65689 5.26813 -1.99912 28 28 23 0.289395 2 2461 1 2298 3 2453
8177 2.22003 3.14307 -1.29177 111 101 71 0.788521 8 3938 9 3058 6 3800 7 3878 5 3289 10 3287 11 2696
660 2.69215 5.19525 -2.00835 50 48 38 1.20019 2 1485 1 2295 3 1419
8137 3.03679 2.89341 -1.60842 111 104 78 0.566578 9 698 10 1077 11 1280 8 405 7 239
659 2.73096 5.17524 -1.87746 50 47 35 0.74746 2 2450 1 2294 3 1400
2913 4.44528 2.94078 -0.509196 77 71 48 0.180106 4 3386 5 3563 3 3281
8175 1.55295 5.36696 2.23239 149 142 115 0.263999 8 3911 7 3925 6 3901 5 4175
658 2.70717 5.2085 -1.80422 72 67 55 0.566181 2 3193 1 2293 3 2450
656 2.9673 5.39589 1.09276 142 140 118 0.665025 2 1480 4 2489 5 2538 1 2288
2909 2.05556 5.66861 -1.9455 78 74 58 0.232042 4 3341 3 3246
8169 2.93318 3.32724 0.248991 189 182 158 1.0452 8 4229 11 2324 7 4113 9 3370 10 3047 6 3598
652 3.07411 5.34698 1.98086 71 64 41 0.325615 3 1383 4 1411 1 2283
2906 1.51119 3.81985 -1.92564 98 93 78 0.717534 5 2814 7 3439
2905 1.51364 3.98182 -2.00995 89 85 71 0.0341251 4 1598 3 3218
8167 2.8093 3.60772 1.36353 94 83 55 1.24297 10 3667 11 3847 7 4164 8 4267 9 3828
650 2.76787 5.1214 -1.80232 69 66 51 0.367884 2 1459 1 2280 3 1398
2904 5.28833 8.31532 4.50492 112 103 73 0.269506 4 3244 3 3157 9 3622
8127 2.42644 3.11119 -1.35352 174 167 144 0.752403 9 2313 10 2537 11 1503 7 1181 8 1363 5 775
8166 2.78262 3.59308 1.37401 81 69 43 1.2054 10 4087 11 4328 6 3694 7 4165 8 4269 9 3831 5 3858 4 2972
649 3.08492 5.32776 -0.648976 54 52 38 0.160282 2 2438 1 2279 3 1370
2903 1.79986 3.49614 -0.500762 159 152 126 0.310255 4 3285 5 3488 6 2632 3 3101 7 1613
648 3.11128 5.29406 -0.656298 68 66 52 0.200697 2 1456 1 2278
8163 2.59297 2.94426 -1.50537 154 149 129 1.77944 8 3837 9 2970 4 3515 5 4319 6 4115 7 4179 3 3347
646 3.17074 5.39098 1.80798 72 66 40 0.418939 3 3142 1 2272
2900 5.39316 5.89992 6.07931 90 81 55 0.302752 4 2967 3 3004
8162 2.58233 3.0897 -0.0582698 148 141 110 0.637215 8 4331 9 3507 10 3220 6 3677 5 2105
645 3.0844 5.30668 1.98827 137 132 110 1.16705 2 3170 3 2421 1 2268
2899 2.02632 3.40798 -0.3851 75 69 51 0.207262 4 3227 3 2979
8122 3.16264 3.08799 -1.44319 144 137 111 0.485824 10 2989 11 3225 8 1886 9 2686 7 1813
8161 2.57645 3.51038 1.31536 140 131 102 0.684784 10 3722 11 3322 3 3595 4 3703 5 3902 6 3719 7 4224 8 3806 9 3440 2 2874 1 1869
644 6.45557 7.35003 5.2193 56 48 28 0.332931 2 2405 5 2000 6 1820 1 2267 3 2288
2898 2.01887 3.41554 -1.99999 38 36 30 1.72292 4 3218 7 3416 8 2700
643 3.12473 5.17721 0.985522 133 129 108 0.41373 2 2423 4 2434 1 2260
642 3.23646 5.24832 1.12236 146 142 117 2.44666 2 3164 1 2259 3 3762
8158 4.00896 4.21778 1.1396 50 47 31 0.554219 8 4479 7 4407 9 4024 6 3997
641 3.30151 5.1947 1.69176 76 70 44 1.0768 2 2407 3 2401 4 2394 1 2253 8 2949 9 2616 10 3465
2895 2.13984 3.39689 -0.777769 135 128 99 0.435633 4 3165 5 3408 6 3280 7 3376 3 2933
8118 3.06669 2.91347 -1.86611 111 103 80 0.237719 9 586 10 944 11 1190 8 1960 7 177
8157 3.89331 4.2594 -0.160032 142 138 112 0.853928 8 4481 7 4413 9 4030 6 4004
640 1.64007 4.24507 -2.01158 79 74 60 0.865879 2 3203 3 3214 1 2252
2894 2.12541 3.34972 -0.327338 172 168 149 1.44875 4 3162 5 3401 3 2931 6 3278
2893 2.3326 3.50683 -0.0204557 139 133 111 0.487555 4 2296 5 2495 3 2929 6 1140
2892 2.53327 3.58048 0.443353 171 166 147 0.583281 5 2357 6 3177
2891 2.55387 3.56167 0.521838 160 155 132 0.898795 4 3048 5 3257 3 2914
8114 2.95064 2.93072 -1.46282 150 143 118 0.372659 10 2378 11 2578 8 2059 9 2051 7 1916
8153 2.92568 3.31035 0.174272 141 131 104 0.649782 9 4358 10 4665 11 4900 7 4483 8 4589 6 3599
636 1.62822 4.18086 -2.00947 82 78 64 0.758751 2 3200 5 3544 1 2239 6 1607
2890 2.57302 3.5556 0.600393 148 141 115 1.2007 4 3045 5 3252 3 2910 6 2260
8152 2.70113 2.91243 -0.900915 88 80 54 1.05092 8 4643 9 3899 5 4670 6 4471 7 4503 4 4476
635 3.44023 5.00618 1.57604 73 65 38 0.20623 2 2383 3 2329 1 2233
2889 2.51242 3.53247 1.36877 94 82 55 0.555999 5 3296 6 2321 3 2893
8112 2.95654 2.92695 -0.659523 179 172 141 1.43403 9 2113 10 1250 6 313 7 1955 8 2101 5 273
8151 2.6127 3.10772 -0.672784 173 165 136 1.03932 8 4880 9 4203 7 4540 10 4157 6 4498 5 4366
634 5.34771 5.802 6.04321 95 87 59 0.465891 3 2242 4 2054 1 2232 2 2331
8150 2.62387 3.06472 0.00713815 115 108 78 1.48564 8 4653 9 3892 10 3761 11 3411 7 4549
633 5.57291 5.75606 6.0397 99 91 63 0.501763 3 947 4 723 1 2215 2 1291
8149 2.55399 2.98232 -0.40837 180 173 151 1.04817 8 4333 9 3527 7 4552 10 1476 11 2693
632 5.67272 5.64815 6.05702 77 67 41 1.52545 3 2103 1 2214 2 2286 4 2002
2886 2.21538 3.34193 -1.22195 137 132 108 0.0180308 4 3120 3 2873
8148 2.21961 5.61872 3.96235 96 89 65 0.820476 8 4646 11 4592 7 4592 9 4146 10 4402 6 4629
631 5.41459 5.71769 6.06638 75 72 50 1.1617 3 2180 1 2211 2 2327
2885 2.22154 3.33746 -1.21686 42 37 26 0.999161 4 3073 3 2872 5 3335 6 2465
8147 2.31709 5.6367 3.53758 120 113 90 0.576243 9 4132 10 4388 7 4593 5 4874
630 5.5325 5.66088 6.08202 58 52 34 0.717117 3 945 4 655 1 2210 2 1211
2884 2.15314 3.35558 -0.959479 162 158 133 0.121745 4 1030 5 1308
8146 3.09895 3.20871 -1.25694 120 112 80 1.39843 8 4987 9 4524 7 4711 10 4971 11 5242
629 5.48997 5.59642 6.08433 70 65 47 0.793937 3 944 1 2209 2 1208
2883 2.3964 3.4648 0.0301594 157 153 130 1.64026 4 3110 5 2429 3 2863 6 1138
8145 2.64804 3.08348 -1.31382 112 102 69 1.21632 8 5057 7 4794 9 4584 11 5264 10 5090
628 5.48997 5.59642 6.08433 70 65 47 0.793937 3 943 1 2208 2 1207
2882 2.59654 3.54111 0.643963 137 132 104 1.18605 4 3043 6 950 3 2850
8144 2.5458 5.43856 3.96431 105 94 69 1.52713 8 4853 10 4631 7 4839 9 4340 6 4598
627 5.43883 5.58405 6.07864 69 65 45 0.358099 3 2175 1 2207 2 2285
2881 2.65605 3.50754 0.913195 145 140 118 0.528968 4 3706 5 3179 3 2849 6 3071
8143 2.57133 3.06855 -0.645404 152 144 115 2.47422 8 5195 9 4592 10 4881 11 5136 7 5008 6 4511
626 2.38684 4.25957 -0.338955 68 62 46 0.104504 2 2368 1 2200
8142 2.68081 3.48463 1.48934 95 83 55 0.270648 10 4684 11 4915 6 4776 7 5012 8 5043 9 4397 5 5029
625 7.31893 6.21819 4.25168 143 135 98 0.333786 2 1132 4 1852 6 1736 1 2194 5 1824
2879 2.25146 3.30853 -0.811731 61 57 42 0.681142 4 3069 5 3324 6 3226 3 2827
8141 2.15177 5.74444 3.45467 75 69 49 1.47054 10 4405 11 4579 7 5046 5 5441
624 5.42062 5.4928 6.02958 106 97 67 0.559391 3 940 1 2191 2 1206
8140 3.87223 4.44397 1.22198 33 29 17 0.380788 9 1627 10 1766 11 1845 8 174 7 189
623 5.47042 5.48067 6.04046 105 96 67 0.903495 3 836 1 2190 2 1203
2877 2.18634 3.19845 -0.69217 62 57 39 0.601504 4 3067 5 1132 3 2824
8139 3.1545 3.08066 -1.41111 155 150 128 1.97316 10 675 11 867 7 1837 8 284 9 404 6 214
622 1.54661 3.95915 -2.01043 93 89 76 0.217514 2 2432 3 2478 4 1596 1 2187
2876 2.43926 3.37404 -0.00843196 137 131 106 0.816184 4 3715 5 3267 3 2821 6 3182
8138 3.09631 3.05965 -0.879507 131 124 92 0.395528 10 891 11 1007 8 365 9 547
621 1.55777 3.97529 -2.00977 93 87 75 0.630364 2 2433 3 2477 1 2185
2874 2.62953 3.45142 0.455418 184 179 156 0.126766 4 2981 3 2810 5 3183
8136 3.02216 2.98289 -1.44621 113 101 72 0.346447 10 2243 11 2461 8 489 9 684 7 303
619 1.69646 3.93678 -2.00917 82 78 63 0.366788 2 2403 3 1423 1 2164
2873 2.85688 3.53938 1.13363 174 167 151 2.99199 4 2936 3 2806 6 776
8135 3.00208 2.86605 -1.60685 113 106 81 0.87185 10 2396 11 2590 9 1981 7 240 8 497
618 1.79636 3.96748 -2.01035 62 58 47 0.521837 2 2400 3 2446 1 2162
2871 2.14352 3.16008 -1.40276 80 71 49 0.195562 5 2471 6 1279
8094 3.05254 3.18794 -0.0873369 185 178 154 0.398473 9 2755 8 2993 10 2192 11 2331
8133 2.9541 2.83083 -1.68907 146 141 122 0.301323 10 1191 11 1448 8 616 9 821 7 319
616 1.79762 3.98432 -1.73448 103 97 80 0.0614239 6 1568 1 2156
8132 2.97136 3.06685 -0.226175 110 98 65 0.640029 9 2026 10 2357 11 2494 8 666 7 513
615 1.30918 3.70591 -1.80467 89 84 71 2.98827 3 3221 1 2126
2869 2.29036 3.22755 -1.22904 139 132 107 0.352102 4 3016 3 2789 5 3284
8131 2.89048 2.78437 -1.65655 118 111 87 0.897698 9 939 8 724 11 1523 10 1358
614 1.83481 3.92621 -1.99764 88 81 64 0.575321 2 2380 3 2426 4 2521 1 2125
8091 2.86438 2.77136 -1.54995 144 137 111 0.571404 9 2891 10 2501 8 3104 11 2679 7 1924
8130 2.89638 2.78933 -1.74278 143 138 119 0.22599 10 1282 11 1531 8 730 9 941 7 404
613 1.84759 3.91563 -1.57931 112 105 79 1.158 2 2379 3 1378 1 2124 4 1507
2867 2.23725 3.22246 -1.06791 164 158 132 0.458508 4 2101 6 1166 7 2590 8 2648 3 2785 5 1142
8129 2.76766 2.69226 -1.60463 112 106 83 0.889037 9 1205 11 1594 8 978 10 1524 7 546
612 2.20282 3.95214 -1.18337 61 57 42 0.831426 2 1263 1 2120
8128 2.77194 3.58202 1.3763 113 101 72 0.596475 10 959 11 911 8 999 9 842 7 943
611 2.45165 4.00894 -0.977703 40 37 26 0.519566 2 3087 1 2116
2865 2.18806 3.15732 -0.332368 161 157 135 0.813772 4 3058 5 3316 3 2770
2863 2.82479 3.59299 0.303598 125 117 87 2.57186 4 2077 5 812
8125 4.0045 4.25476 0.930982 136 131 103 0.303015 9 1595 10 2729 11 2858 8 1783 7 1793
608 2.5365 3.94278 0.681772 81 74 53 0.872922 2 2255 3 2296 4 2338 1 2095
8124 3.74756 4.66923 1.07446 138 135 115 0.466582 9 1646 10 1769 11 2885 8 1832 7 331
607 2.5621 3.94543 0.83473 86 78 52 0.402604 2 1137 3 1162 4 1184 1 2094
2861 2.50433 3.25374 0.0866419 165 158 129 0.783853 4 3632 5 4409 6 3734 3 2757
8123 3.18873 3.24037 -1.2421 119 111 81 1.70744 10 2950 11 3130 8 1879 9 2677 7 205
606 2.56099 3.93652 0.840151 120 114 87 0.352405 2 2253 3 2293 4 1183 1 2093
8081 3.43396 3.17552 -1.98962 92 87 73 0.373983 9 3203 11 4237 8 3542 10 3983 7 2814
8120 3.11297 3.05167 -1.33962 166 159 138 0.435691 9 475 10 772 11 1021 8 1938 7 1832
603 1.91463 3.81883 -1.99684 87 80 65 0.38251 2 3092 3 3119 4 3287 5 2704 6 1543 1 2088
2857 2.79158 3.37336 0.832289 122 112 85 0.873762 8 2295 7 2233
8119 3.05143 3.00746 -1.4667 143 136 111 0.329578 10 919 11 2456 8 1954 9 1893 7 305
602 2.11007 3.82405 -1.33514 72 68 52 0.666004 3 1280 4 1386 1 2087
2855 2.31009 3.16078 -1.28392 143 137 116 0.538067 4 2960 3 2735 5 3211
8117 3.07484 3.00412 -0.617807 94 82 53 0.388166 10 2225 11 2505 8 1987 9 1958 7 276
600 2.26024 3.9013 -1.1058 50 47 35 0.1899 2 1256 3 1264 1 2081
8116 2.95806 2.93708 -1.47258 107 93 61 1.79647 9 2827 10 3146 8 2056 11 2525 7 384
599 2.23154 3.87583 -1.12469 73 67 48 0.49679 2 1257 1 2078 3 1266
8115 2.95803 2.93711 -1.47235 109 96 63 1.68432 9 2828 10 3147 8 2057 7 385
598 2.55352 3.90476 0.852705 122 115 85 0.685025 2 1134 3 1159 1 2049
8113 2.93879 2.92094 -1.48733 126 116 89 0.737631 9 2061 10 2390 11 2585 8 2066 7 391
596 2.08308 3.74228 -1.49718 28 26 21 0.272364 2 2278 3 2369 1 2040
2850 2.89787 3.29145 0.742543 149 141 110 2.02541 4 3569 6 4746 3 2711 5 4690
2849 2.57818 3.25257 -1.15594 82 75 53 0.462924 4 2918 5 2166 3 2704
8111 2.92147 2.90717 -1.44171 134 127 101 0.482634 9 2056 10 2386 11 2582 8 2118 7 388
594 2.06811 3.74723 -1.43047 88 81 61 1.1001 3 2368 4 1388 1 2038
8110 2.89215 2.78601 -1.62204 121 116 92 1.52422 9 2132 10 3212 11 2680 8 2126 7 397
593 2.1167 3.77391 -1.34289 73 68 53 0.947914 2 3062 3 3738 1 2037
8070 2.99179 2.95898 -1.40066 152 144 122 1.28654 9 3800 10 4097 11 4369 8 3646 7 1872
8109 2.88547 3.06455 -0.0902517 148 139 110 1.7741 9 3397 8 2170 10 4488 11 4714
592 1.8355 3.65781 -0.855097 65 59 40 2.90063 2 4467 1 2020
2846 2.54534 3.13857 -0.07984 174 169 146 0.722639 4 3610 3 2699
8069 2.97915 2.95352 -1.46237 113 101 69 0.899633 9 3357 10 4101 11 4373 8 3669 7 2884
8108 2.82753 2.73855 -1.5863 125 118 96 0.538188 9 2244 11 1563 7 479 8 2213 10 1448
591 1.77528 3.65927 -0.587646 95 89 65 1.26355 2 2310 3 1337 1 2018
2845 2.58931 3.11775 -0.104735 166 160 132 0.654801 4 3581 5 3808 3 2698
8107 2.87402 3.37251 0.45584 160 153 129 0.556772 9 2096 10 1004 11 1085 8 2230 7 704
590 1.77766 3.6344 -0.611448 102 97 73 0.42726 2 2309 3 2412 4 1494 1 2017
2844 2.56014 3.09088 -0.0451392 155 151 124 1.09795 4 2884 3 2696 5 3124 6 797
8106 2.877 3.30637 0.233291 175 168 143 1.24008 10 1015 11 1093 7 717 8 2241 9 2101 6 630
589 1.71516 3.59675 -0.312219 138 132 104 0.0871162 2 2306 1 2012 3 1332
2843 2.52886 3.10944 -1.37545 138 132 108 0.429121 4 3559 5 3790 3 2675
8105 2.39209 3.30947 -1.20542 148 142 115 0.338822 10 2484 11 2566 8 2561 7 2462
588 2.54496 3.81535 0.533775 117 110 82 0.130557 2 2225 3 3021 1 1998
8104 3.99571 4.25909 0.585763 157 154 134 0.64619 9 2536 10 2731 8 2845 7 2831
587 2.54348 3.80018 0.547147 118 111 80 0.232843 2 2224 3 1075 1 1997 4 1088
2841 2.6482 3.11548 -0.123866 173 162 124 0.192956 5 3782 6 3646 7 4172
8103 3.30003 3.31118 -1.03856 124 117 91 1.11709 9 3727 10 2890 11 3766 8 2884 7 156
586 2.53722 3.75679 0.581494 121 112 79 0.128935 2 2223 3 2191 4 2284 1 1996
8101 3.06606 3.01401 -1.34805 128 116 87 0.586082 9 2730 10 3071 11 3315 8 2939 7 1866
584 2.52192 3.75792 1.40681 106 98 71 0.151763 2 2215 3 2245 4 1074 1 1989
2837 2.34656 2.99245 -1.54412 178 175 160 0.63664 4 2863 6 3163 7 3836 3 2653 5 3146
8099 3.11069 3.24044 -0.227029 92 82 56 1.46472 9 2723 10 2114 11 3200 7 1895 8 2966
582 2.01915 3.67659 -1.69459 141 136 119 0.131775 2 3037 3 3091 1 1986
2836 2.48879 3.04868 -1.54407 178 175 160 0.917289 4 2861 5 3110 6 3062 7 3761 3 2650
8098 3.01782 3.21091 -1.25181 147 139 111 1.17132 9 1879 10 2135 11 2276 4 319 6 1879 7 2902 8 2971
581 1.99119 3.71558 -1.57695 115 108 82 0.457797 2 2281 3 2371 4 1425 1 1985
2835 2.55518 3.05041 -1.34223 159 150 120 0.97619 4 3558 5 4704 3 2645
8097 3.00322 2.96894 -1.45564 113 103 72 0.493943 10 3696 11 3933 8 2973 9 3356 7 1874
580 2.08722 3.72128 -1.45669 81 74 57 0.32409 2 2246 3 2322 4 2462 1 1983
8096 3.23677 5.26113 1.76892 132 127 104 1.07498 9 1714 10 1849 4 3248 8 2983 3 3756 2 3761
579 2.09522 3.71541 -1.36762 125 120 96 0.083258 2 2245 3 2320 1 1980
2833 2.86749 3.06045 -0.600997 165 160 136 0.0759132 4 2779 5 3000 3 2635
8056 3.1754 3.52939 -0.322354 91 83 58 0.383976 9 3750 8 4148 10 4007 11 3754
8055 3.09783 3.04087 -1.45364 159 152 129 0.859409 10 4062 11 4340 8 4157 9 3774 6 1809
2831 2.65486 2.96468 -0.95717 130 124 95 0.270441 4 2791 5 3742 3 2616
8093 2.92626 3.27267 0.773854 142 134 102 1.61508 9 3392 11 3285 6 2027 8 3075 5 518
576 1.79971 3.58562 -0.784469 123 118 93 0.269391 3 2392 1 1968
2829 4.52418 3.53418 0.315342 144 141 116 0.873791 4 2700 5 3618 6 3441 3 2603 4 3422
8052 2.96326 3.38333 0.354823 190 184 161 1.02697 9 4123 10 4433 11 4670 8 4200 7 3633
2828 4.51045 3.49387 0.500413 138 135 114 0.62479 4 2697 5 117 3 2601
8051 2.82409 2.78059 -1.507 144 140 122 0.615628 9 3871 10 4188 11 4421 8 4245 7 4091
8090 2.90409 3.31794 0.693833 147 140 112 2.31951 9 2091 10 2278 3 3466 4 4144 7 4127 2 2761 6 3623 8 3125
573 2.46603 3.66985 0.383609 134 129 106 0.397104 2 2164 3 2195 1 1949
8050 2.77726 2.74623 -1.50518 138 133 111 0.566995 9 3466 10 3783 7 3617 6 1882 8 4263
8089 2.79372 3.24734 0.115952 187 179 150 0.348061 9 2875 11 2489 10 2352 7 3081
572 2.52444 3.6889 0.494522 96 88 64 0.513475 2 2159 3 966 1 1947
8049 2.77552 3.5474 1.40354 178 169 156 0.478149 10 4445 11 4679 7 3714 8 4266 9 3830 6 2128
8088 2.69447 3.20212 -1.1175 125 118 88 0.698185 10 2375 11 2515 6 2066 7 3102 5 599 8 3194 9 2169
571 2.53504 3.62989 0.477968 108 103 80 0.416618 2 2103 3 2131 1 1946 4 2228
8048 2.75137 3.10981 -0.131017 96 84 51 0.757852 9 2914 10 2421 11 1310 6 4103 7 4148 8 4283
570 2.50659 3.7087 0.625133 87 78 53 0.291945 2 2158 3 2190 4 2283 5 1087 6 1045 1 1945
8086 2.65796 3.07113 -0.762064 129 118 86 0.643307 10 3194 11 2622 6 2059 7 3139 8 3223 9 2924 5 2060
569 2.59027 3.65898 0.928037 121 114 84 0.519489 2 2154 3 2118 1 1942 4 974
8085 2.61625 3.06984 -1.30203 161 154 127 0.981577 9 2237 10 1340 11 2636 8 3237 7 3149
568 2.59766 3.61584 0.926999 105 96 67 0.178888 2 2088 3 2117 4 2213 5 2334 1 1940
8044 3.10518 3.29143 -0.337087 134 127 98 0.327487 9 4099 8 4540 10 4648 11 4891
8083 2.36582 3.16258 -1.22295 184 179 160 0.647388 10 2571 11 1495 8 3343 9 2363 5 2305 6 2297 4 623 7 3286
566 2.63134 3.61317 1.16059 105 93 66 0.924007 2 2879 3 2898 4 2209 5 3233 6 3099 1 1938 2 847
2820 4.31557 3.01218 -1.79666 113 108 91 0.128761 5 3567 3 2559
2819 4.68513 3.12572 -0.679578 38 36 24 0.0285569 5 3566 3 2558
2818 4.45242 2.93638 -0.164799 97 92 62 0.711071 4 2656 3 2557
8080 3.65142 4.5855 0.176074 129 125 99 1.18173 9 3199 8 3562 11 3576 8 2879 10 3426
563 2.47225 3.63178 1.5441 151 143 117 0.576568 2 2152 3 2181 1 1934 7 3277
2817 2.62951 2.53854 -2.0053 135 131 119 0.310584 4 2669 3 2545
8079 3.22157 3.0219 -1.98838 107 101 86 0.25647 9 3271 11 4305 8 3565 7 2824
562 2.05657 3.62389 -1.99591 42 39 27 0.423241 2 2990 1 1930
2816 3.15703 2.43662 -1.44316 98 95 83 2.18909 6 3428 3 2532
8078 3.57674 4.81579 1.45654 72 67 45 0.565821 9 3209 10 3438 11 4135 8 3586 7 3563
561 2.14962 3.6341 -1.49794 22 22 17 0.182902 2 2195 1 1924 3 2280
2815 2.0939 5.67546 0.293763 123 119 93 0.608466 5 2731 3 2515
8077 3.44655 4.8638 0.46919 131 127 104 1.66495 9 3215 8 3593 10 3446 11 2904 10 2803
560 2.04877 3.54866 -1.26545 94 84 58 0.377763 2 1011 1 1919 3 1128
2813 2.146 5.66108 0.345618 63 59 39 0.712629 4 1584 5 1583 3 2513
8075 3.15621 3.02233 -1.50495 123 117 92 0.847206 9 3298 11 3868 7 3519 6 1789 8 3608
558 2.23442 3.62906 -1.11679 35 32 23 0.226143 2 2187 1 1915
8074 3.15064 3.50992 -0.437809 129 122 91 0.668726 9 3754 8 3617 10 4011 11 4273
557 1.78917 3.54669 -0.771901 79 73 55 0.34746 2 2266 3 1303 1 1910
8073 3.09052 3.18542 -1.28075 169 162 142 1.63314 9 3307 10 4045 11 3836 8 3623 7 3542
556 1.78762 3.51169 -0.742874 91 87 67 0.0883216 2 3025 3 2389 1 1909
2810 3.18137 5.90432 3.93574 124 118 92 0.612555 4 2488 6 2316 3 2462
8072 3.06725 3.01139 -1.39241 115 105 79 0.430765 9 3327 10 3657 11 3901 8 3625 7 2876
555 1.78764 3.50791 -0.563312 153 148 124 0.340342 2 2236 3 2388 4 2495 5 1556 1 1908
2809 1.79923 3.97889 -1.96505 116 111 96 0.999408 4 1514 7 1589 3 2445
8032 3.08768 3.21094 -1.19753 102 92 60 1.62694 9 4328 8 4780 10 4651 11 5096
8071 3.0072 3.21199 -1.2481 107 98 67 0.319005 9 3324 8 3643 5 339 4 320 6 2869
554 1.80019 3.49656 -0.500251 160 154 126 0.550792 2 3024 3 3100 4 3286 1 1907
2808 3.06491 5.37053 0.474682 141 137 108 0.592683 4 1420 3 2433
2806 1.76626 3.51555 -0.333476 146 140 118 0.432604 4 2516 5 1588 3 2385
8068 2.8399 2.97041 -0.977191 114 105 70 1.04761 9 2886 8 3717 10 3172 11 2625
551 1.98196 3.48269 -0.230388 179 173 153 1.72575 2 2178 1 1901 3 1183
8028 2.89806 3.29272 0.738498 141 134 105 1.71473 10 4677 11 4908 7 4976 8 5029
8067 2.79554 2.75981 -1.50421 132 125 98 0.414408 9 3465 10 3781 11 4013 8 3743 7 2966
550 2.01381 3.5445 -0.148709 182 177 157 2.20977 1 1899 3 2307 4 2441
2804 1.82624 3.48969 -0.490645 150 144 117 0.364179 4 2494 5 2717 6 2619 7 2732 8 1613 3 2348
8066 2.60592 3.06867 -1.29798 132 123 94 1.7026 10 3203 11 2637 8 3801 9 3490 7 3737
549 2.02335 3.55096 -0.13559 139 133 110 1.1518 2 2231 3 2306 1 1898 4 2440 5 2679
2803 3.42812 4.92398 1.52872 71 65 39 0.01177 7 2982 8 2916
8065 2.42211 3.17186 -1.30357 150 145 126 1.19856 9 3003 10 2531 6 3712 7 3813 8 3875 5 3849
548 2.01634 3.51162 -0.164602 175 171 153 1.48257 2 989 3 2304 1 1897
2802 1.87942 3.40334 -0.372075 116 110 83 0.155425 4 2448 5 2693 7 2725 3 2310 6 2618
8064 2.19299 3.24733 -1.06812 160 152 122 1.37957 9 3055 8 3929 4 4266 7 4297 5 4464 2 3457 1 2510 3 3562
547 2.12859 3.54439 0.0130066 96 86 58 0.33353 2 2953 3 2260 1 1892
546 2.14947 3.50848 0.0351539 109 100 72 0.261751 2 2170 3 3027 1 1890
2800 2.02511 3.43596 -0.725662 154 149 125 0.5219 4 2409 5 3464 6 3340 7 3408 8 2726 3 2269
8062 2.26678 3.2313 -1.14608 140 126 87 1.53277 9 3028 10 2567 5 3936 6 3798 7 3855 8 3932 3 2788 4 3013 2 519
545 2.49555 3.57507 0.328226 78 72 53 0.668667 2 2109 1 1888 3 2136
2799 2.03208 3.44521 -0.679265 154 150 130 0.364765 4 3233 5 3461 6 3339 7 3407 3 2268 8 2725
8022 3.31288 3.08947 -1.74488 137 133 115 0.832877 10 525 11 678 9 288 8 188
544 2.52241 3.55338 0.432827 159 156 136 1.24257 2 2898 3 2924 1 1885
8060 4.14856 4.07531 0.966536 121 117 93 0.796122 9 4014 11 4797 5 2955 4 418 6 3488 8 4047 7 3996
543 2.54429 3.57532 0.526646 108 98 68 0.35919 2 2095 3 2915 4 3100 1 1883 5 3258
2797 1.98997 3.38357 -0.338168 61 55 38 0.933073 4 2405 5 2648 6 3334
8059 3.16324 3.08365 -1.47736 142 132 106 0.600933 9 3760 8 4136 10 4050 11 4325
542 2.57027 3.5481 0.534454 145 139 115 0.818944 2 2094 3 2041 4 2142 1 1881
2796 2.16404 3.54911 -0.0779921 71 60 34 0.431975 4 1280 5 1358 6 1303
8058 3.14099 3.07182 -1.44085 137 128 100 0.665573 10 4051 11 4323 8 4137 9 3771 7 3530
541 2.55835 3.60832 0.596771 99 90 61 0.192995 2 2096 3 2127 1 1880
2795 2.89124 4.14816 0.613221 121 114 86 2.36083 7 4987 3 2254
8018 3.09011 3.03229 -1.422 108 97 65 0.182391 10 2146 11 2370 9 480 8 386
8057 3.13383 3.07404 -1.49332 47 44 32 2.21405 7 4036 10 4053 8 4138 9 3772 11 3841
540 2.5941 3.55722 0.786008 130 122 93 0.42232 2 2886 3 2904 4 3041 1 1878 5 2336
2794 2.04153 3.42305 -1.52346 133 128 99 0.000558896 4 2389 3 2240
8017 3.0484 3.22938 -0.323721 78 69 45 0.423356 10 738 11 962 9 531 8 558
8016 3.07169 3.01884 -1.42554 129 121 93 0.251004 10 915 11 1161 9 561 8 393
2792 2.07221 3.38203 -0.568485 98 91 67 0.840429 4 2358 5 2615 6 1416 3 2220
8054 2.99073 2.96071 -1.44957 150 141 115 0.961776 10 4099 11 4372 8 4177 9 3801 7 3543 6 1849
537 2.58956 3.59848 0.866486 108 99 70 0.255402 2 2887 3 2902 4 3092 1 1875
2791 2.07221 3.38203 -0.568485 98 91 67 0.840429 4 2359 5 2616 6 1417 3 2219
536 2.59015 3.59866 0.880418 155 151 131 0.380404 2 2087 3 2122 4 2216 1 1874
2790 2.12376 3.40111 -0.278555 137 132 114 0.529036 4 2353 3 2214 5 2611 6 2541
2789 2.20173 3.51911 -0.0908196 113 103 75 0.280046 6 2483 7 1352 3 2209
2788 2.20412 3.52368 -0.0809167 105 98 71 0.10619 4 2342 5 1281 3 2208
2787 2.5224 3.59737 1.44817 54 46 28 0.475803 4 2208 5 1076 3 2185
2786 2.521 3.58973 1.46945 137 128 99 0.22787 4 2207 5 2406 3 2183
8047 3.84945 4.41721 1.2426 135 131 114 0.396977 9 4042 10 4579 8 4490 11 4808 10 4300
530 2.59725 3.50365 1.59591 136 127 99 0.270711 2 2077 3 2104 4 3032 1 1857
8046 3.712 4.61035 1.35943 131 126 105 1.54579 9 4049 10 4315 6 4075 1 3444 8 4502 7 4053
529 1.94326 3.54919 -2.00599 74 70 55 2.55787 2 2210 3 3092 1 1856
528 1.94651 3.52026 -1.99692 102 95 75 0.621298 2 2991 3 3060 4 2427 1 1854
2781 2.08011 3.38426 -0.870695 143 136 109 0.671846 4 2363 5 3434 6 3315 7 3412 8 2683 3 2150 9 1370
8004 2.62414 3.50023 1.45909 188 181 168 0.625016 10 2406 11 2471 9 2190 8 2413
8043 3.03809 2.99571 -1.46774 138 130 102 1.3874 9 4115 10 4441 11 4695 7 4047 6 265 8 4544
526 1.94392 3.5198 -1.63739 146 143 123 0.49431 2 2987 3 2283 4 1393 1 1851
2780 2.76926 3.81455 0.257486 138 132 102 1.28826 7 3129 3 2143
8042 3.00892 2.91043 -1.51682 165 158 138 1.22809 9 4131 10 4464 8 4547 6 3995
525 2.06847 3.4863 -1.22989 91 81 56 0.570787 2 2138 3 2234 4 1250 1 1838
2779 2.54293 3.55582 0.491875 152 147 122 0.450777 4 2145 5 2354 6 958 3 2128
8002 -0.204661 4.18967 1.72545 181 175 149 1.92031 11 5581 10 5294
8041 2.98647 3.18759 -1.26279 143 135 106 0.727512 9 3783 10 3623 8 4557 7 4461
524 2.06376 3.48455 -1.21586 137 131 107 0.738014 2 2924 3 2233 4 2377 1 1837 5 1399
2778 2.59375 3.59052 0.901934 148 141 116 0.305685 4 972 3 2119
8040 2.97198 2.95212 -0.746265 160 152 116 1.18853 9 3818 10 4119 11 3947 6 4017 7 4450 8 4578 5 3684
523 2.09061 3.4836 -1.11078 72 64 45 0.223688 2 929 3 1024 1 1834
8039 2.86159 2.79658 -1.51667 164 156 131 0.590184 10 4165 11 3994 8 4599 7 4464
522 2.06661 3.43295 -0.621049 147 140 111 0.278301 2 2917 3 2984 5 3429 1 1828 4 3196
2776 2.52065 3.56696 1.6192 156 150 131 0.815121 4 3084 5 2402 3 2108
7999 1.84402 5.80604 4.07752 134 127 103 1.55302 11 5484 10 5209
8038 2.85569 2.78586 -1.5305 123 116 89 0.611797 9 4176 10 4507 8 4600 11 4745 7 4466 6 3527
521 1.94733 3.45475 -0.416124 112 102 75 0.329927 2 2969 4 3885 1 1827
2775 2.58867 3.49989 1.54863 180 172 154 0.510421 4 2128 5 2325 3 2107
7998 -0.0197136 4.17799 2.31346 187 180 162 3.14991 11 5284 10 5116
520 2.02759 3.41516 -0.414234 81 74 56 0.312 2 2123 3 2218 4 2407 5 2651 1 1826
2773 2.15147 3.31912 -1.29102 91 85 66 0.149283 4 3123 5 3373 3 2090
8035 2.74542 3.091 -0.205617 176 169 140 0.635821 10 4499 11 4726 8 4619 9 4186 7 4521
518 2.1002 3.47575 -0.149853 144 136 111 0.945443 2 2117 3 3034 4 2401 1 1823 5 1360
8034 4.12161 4.04728 1.00876 134 130 108 1.44288 9 4274 8 4737 11 5001 5 4270 4 3539 6 4410
517 2.09547 3.45944 -0.167092 146 140 113 0.654913 2 2118 1 1822 3 3032 4 2350
2771 2.1671 3.32741 -1.25807 131 123 99 0.347655 4 2266 3 2088 5 3371
8033 3.18536 3.23662 -1.26624 138 131 103 0.584184 9 4324 10 4639 11 4881 8 4769 7 4697
516 2.35415 3.43101 -0.0797621 171 168 148 1.26131 2 2848 4 2241 1 1820 3 2058 5 1105
2770 2.17258 3.37411 -1.1987 132 127 107 2.24982 4 3121 3 2087 5 4017
2769 2.15186 3.36475 -1.13362 146 140 115 0.665252 4 3118 5 3411 6 3282 7 2595 3 2084
7992 3.05347 3.23739 -0.38197 98 89 59 2.24416 11 5353 10 4976
8031 2.97804 3.45824 0.538505 117 110 80 1.3423 9 4671 8 5010 10 4972 11 5234
514 2.44795 3.4795 0.23644 78 71 51 0.131341 2 2845 3 2861 4 2234 5 2423 1 1815
2768 2.20178 3.40179 -1.11525 153 147 125 0.336453 4 3116 5 3369 3 2081
8030 2.99727 3.25379 0.765602 107 96 64 1.04492 10 4676 8 5018 11 4685 9 4355 4 4788
513 2.52991 3.48836 0.316937 130 123 96 0.589518 2 2842 3 3581 1 1814
2767 2.25107 3.37608 -1.03078 99 91 69 0.449764 4 2256 5 2457 3 2077 6 1164
8029 2.97339 3.36397 0.674798 113 105 77 1.01072 9 4547 8 5019 10 4847 11 5101
512 2.51482 3.50572 0.409875 169 163 143 0.498328 2 2838 3 3579 1 1812
2766 2.33812 3.40119 -0.100911 173 167 146 0.102255 4 1008 3 2060 5 1106
8027 2.23357 3.13666 -1.31039 158 151 131 1.07827 9 4608 10 4739 7 5178 8 5091 6 5019
510 2.61037 3.43188 0.390903 172 165 140 1.30442 2 2801 3 3539 1 1810
8026 3.08873 3.00868 -0.697305 181 172 145 0.981265 10 4984 11 5249 8 5153 9 4668 7 5104
509 1.96477 3.49141 -2.00327 26 22 17 0.846009 2 2932 1 1800 6 1513
2763 2.53331 3.50753 0.435962 130 121 92 0.308416 4 2148 5 2351 3 2047
7986 2.81306 2.72773 -1.98492 109 103 84 0.791275 11 4763 10 4725
8025 3.04379 2.98022 -0.72252 152 144 114 1.56156 9 4678 11 5257 8 5154 10 4990 7 5107
508 1.98373 3.46414 -2.00278 32 30 23 1.51509 2 2148 3 3001 1 1799 7 4638 8 4395
2762 2.77084 3.58278 1.20947 117 101 68 2.16306 3 2035 5 889
7985 -0.131303 4.12049 3.40108 114 108 83 0.177209 11 4444 10 4553
8024 3.67266 3.46172 -2.00471 74 71 63 1.13613 10 1780 11 1885 9 105 8 78
507 1.99723 3.45107 -2.0044 16 16 11 0.25712 2 2866 3 3680 4 3853 1 1798
8023 3.38988 3.14475 -1.6107 134 130 111 2.09906 8 160 10 1904 9 234 11 2089
506 2.02478 3.44732 -1.52457 136 130 105 0.16727 2 2145 3 2241 4 2390 5 2637 1 1797 6 2569
2760 2.21549 3.24544 -1.21244 158 153 133 2.44855 4 2188 3 2011 5 3981 6 4257
2759 2.20879 3.24655 -1.15279 98 91 67 0.603122 4 2184 5 1153 3 2009
8021 3.19249 3.28273 -0.275845 97 88 58 0.638925 10 2000 11 2211 9 381 8 344
504 2.02285 3.44815 -1.31999 126 120 96 0.350241 2 2139 3 2236 4 2383 1 1795
2758 2.48916 3.36842 0.22978 133 121 90 0.17901 4 2073 6 966 3 1972 5 906
8020 3.18775 3.00153 -1.6069 106 100 76 0.369749 10 2088 11 877 8 1865 9 414 7 137
503 2.14391 3.43059 -1.13303 131 125 105 0.31058 2 2858 3 2936 1 1792
8019 3.10282 3.04404 -1.43425 110 98 65 0.672334 10 2143 11 1023 8 1948 9 478 7 224
502 2.14213 3.4112 -1.12107 92 85 61 0.184442 2 2070 1 1791
7976 -0.0800702 3.91428 -1.79383 112 106 84 0.0155861 11 4452 10 4263
8015 2.93257 3.30813 0.120724 174 165 137 0.547165 10 841 11 945 7 592 8 2165 9 757 6 544
498 2.12928 3.40421 -0.720291 126 117 86 0.85852 2 2064 3 2149 4 2308 5 2558 1 1783
7975 -0.0800702 3.91428 -1.79383 112 106 84 0.0155861 11 4451 10 4262
8014 2.91691 3.06416 -1.29271 176 172 155 0.609247 10 1058 11 1260 7 1966 9 797 6 401
497 2.09067 3.40658 -0.622883 103 96 71 0.327459 2 2061 3 2983 4 2360 5 2617 6 1415 1 1781
8013 2.95896 2.93674 -1.4518 136 128 102 0.326086 10 1175 11 1356 8 585 7 383 9 804
496 2.03047 3.41882 -0.527023 141 134 106 0.407104 2 2124 3 2981 4 3228 5 2654 6 2583 1 1780
8012 2.70794 3.20964 -1.11855 116 108 79 0.793761 10 1162 11 1258 9 1018 8 3193
495 2.36659 3.38672 -0.0845677 171 167 146 0.933157 2 2000 1 1776 3 2056 4 3055
7972 2.65134 3.03604 0.0592753 179 174 146 2.01448 11 4404 10 4172
8011 2.58061 3.07876 -0.0309484 126 116 84 1.33022 10 3221 11 3412 8 2493 9 1237 7 957
494 2.39289 3.40848 -0.0526089 167 161 140 1.92976 2 2846 3 3582 1 1775 5 3971 4 3718
8010 2.43653 3.11596 -1.42416 149 142 123 0.455144 10 1444 11 1509 7 2409 8 2518 9 1284 6 922
493 2.53526 3.35218 0.128029 147 141 117 0.129727 2 2803 3 2816 1 1774
7970 2.90891 3.63163 1.26108 105 94 66 0.341847 11 4653 10 4066
8009 3.42918 3.2015 -1.52273 129 119 88 0.430354 10 1876 11 2083 9 1681 8 154
492 2.49198 3.36622 0.161684 134 127 95 0.239021 2 1993 3 1974 4 2991 5 2276 1 1773
7969 3.25171 3.25022 -0.105863 172 164 141 0.286674 11 4640 10 4022
8008 3.03907 5.41703 0.468049 155 151 125 0.741217 10 1855 11 1879 2 2448 3 2434 4 2477 1 2291 9 1756
491 2.50227 3.35349 0.159415 131 125 99 0.332224 2 2804 3 2815 4 2990 1 1772 5 3192
8007 3.2064 3.55732 -0.342391 95 88 61 0.111278 10 1951 11 3035 9 1787 8 353
490 2.59873 3.39163 0.297591 149 143 118 0.929287 2 2800 3 3541 1 1771 4 4237
8003 2.56111 3.05292 -1.33027 161 153 128 0.579815 10 1434 11 1427 6 2115 7 3172 8 3280 9 2275 5 606
486 2.89997 3.33227 0.678538 138 131 102 0.621222 3 480 4 1914 5 2090 1 1765
8001 2.98239 3.36291 0.951114 163 157 141 1.73817 11 5572 10 5283
484 2.78095 3.36791 0.867978 112 104 76 2.97743 3 2747 5 3117 1 1760 6 3002
8000 3.06921 3.07895 -0.939217 161 154 129 2.50172 6 5375 7 5433
483 2.76749 3.38922 0.914066 173 167 150 0.506845 2 2796 3 3497 1 1758
7996 1.83353 2.64846 -2.01345 142 136 120 2.03824 11 5293 10 5033
479 2.03214 3.40103 -1.995 99 92 77 0.629197 5 3452 6 2571 1 1750 2 2864 4 3182 3 2947 7 1489
7955 3.22531 3.27917 -1.23825 99 91 64 0.0916464 11 4287 10 3563
7994 2.7414 2.96576 -0.841072 169 162 140 0.848925 11 5270 10 5006
477 2.19433 3.31735 -1.12348 118 110 80 1.12564 2 2815 3 2080 4 1032 1 1740
7954 3.22531 3.27917 -1.23825 99 91 64 0.0916464 11 4286 10 3562
7993 3.04496 3.21016 -1.23152 145 136 106 1.86288 11 5240 10 4980
476 2.19417 3.31094 -1.11404 88 79 53 0.205862 2 1959 3 2079 1 1739
7991 2.77973 2.70718 -1.98338 103 96 74 0.0823986 11 5142 10 4887
474 2.27487 3.34881 -1.03376 100 94 73 0.303598 2 2011 3 2004 4 2177 1 1737
7990 3.14726 2.98251 -1.5459 160 151 123 0.0592486 11 5108 10 4845
473 2.27472 3.3355 -1.0463 136 132 112 0.517674 2 2778 1 1736 3 2828
7989 3.18974 3.00952 -1.54458 161 153 126 0.00756521 11 5098 10 4842
472 2.20482 3.308 -1.06415 135 129 104 1.20265 2 1950 3 727 1 1735
7988 3.1921 3.26131 -0.254219 139 130 99 1.09388 11 4887 10 4840
471 1.82292 3.30482 -0.916054 129 122 96 0.0349749 4 1376 1 1731
7948 3.92662 4.32409 1.12469 140 135 121 1.22691 11 3559 10 3406
7987 3.49711 3.21645 -1.97245 108 103 86 2.70758 11 5219 10 4812
470 2.31809 3.30479 -0.917803 81 75 58 0.635652 2 2775 3 3559 1 1729
7984 -0.035369 4.05997 2.13987 127 122 91 2.73101 11 2736 10 4549
467 2.1789 3.36312 -0.73127 107 98 71 0.49704 2 2811 5 4013 1 1726
7983 0.494605 4.58558 3.40474 111 106 80 0.132461 11 4402 10 4542
466 2.15093 3.31217 -0.648593 72 66 47 0.421568 2 2004 3 2068 4 1024 1 1724
7943 0.276779 4.38676 3.30092 165 159 140 1.04476 11 4019 10 3310
7982 2.22459 3.23874 -1.13464 162 154 125 2.40075 11 3985 10 4524
465 2.09546 3.34474 -0.566864 73 66 48 0.305927 3 2147 4 2304 5 1368 1 1722
7981 3.04353 3.19408 -0.150686 169 160 131 0.994725 11 4674 10 4436
464 2.48466 3.31765 0.0234269 143 137 108 0.501648 2 2770 3 2817 4 2995 1 1720
7941 2.64259 3.47473 1.50828 144 133 106 0.045293 11 2467 10 3154
7980 3.1351 3.18841 -0.575114 132 127 102 0.88175 11 5094 10 4412
463 2.47911 3.2864 0.0265602 98 92 69 0.236129 2 1936 3 582 1 1717
7979 2.34097 5.79976 -0.770976 101 98 76 2.01012 11 4560 10 4367
462 2.46073 3.26421 -0.0176313 74 67 46 0.104464 2 2769 3 2767 1 1716
7978 3.51524 3.31439 -1.50283 144 138 116 0.568141 11 4566 10 4350
461 2.46073 3.26421 -0.0176313 74 67 46 0.104464 2 2768 3 2766 1 1715
460 2.46555 3.25689 -0.00870835 172 168 146 0.475371 2 2767 4 2947 1 1714 3 2764
7974 -0.145966 4.03871 0.184864 177 171 146 0.157896 11 4046 10 4256
457 2.49709 3.2544 0.0575698 136 131 104 0.151933 2 2765 3 2761 4 2946 1 1711
7973 -0.168567 4.08021 -1.77848 70 66 55 0.878298 11 4033 10 4251
456 2.51375 3.25085 0.0804532 164 158 132 1.06168 2 3986 1 1710 3 4440
7971 2.74133 3.23022 0.0918546 151 146 122 0.583136 11 3936 10 4138
454 2.93002 3.20804 0.837893 135 128 100 1.94296 2 453 1 1699
7930 3.30601 3.31724 -0.962076 90 84 58 1.13378 11 3763 10 2888
7968 3.37367 4.95762 0.757342 91 84 57 0.256823 11 4159 10 3939
451 2.15852 3.32044 -1.50324 87 83 63 0.150978 2 1984 3 2099 1 1695
450 2.18411 3.32379 -1.49013 76 70 52 0.556592 2 1983 3 751 1 1694
7964 -0.206161 4.07924 -0.859658 50 44 27 0.178122 11 3470 10 3872
447 2.11372 3.29567 -1.38086 126 121 100 0.501215 2 2789 3 2092 4 3130
7963 2.86923 2.768 -2.0018 17 16 14 0.108255 11 3997 10 3756
446 2.10685 3.29001 -1.38968 128 122 101 0.877116 2 1981 3 2096 4 1057 1 1689 5 1333
7962 2.85877 3.25811 0.0805779 167 158 132 0.103285 11 3891 10 3679
445 2.15544 3.27923 -1.31041 83 73 51 0.110497 2 635 1 1685
7961 2.89771 3.61447 1.2699 167 159 146 1.24887 11 3180 10 3639
444 2.20555 3.30723 -1.28811 65 59 40 0.593897 2 1972 1 1684
7921 0.381902 4.72265 4.60509 75 69 53 7.17156e-05 11 2645 10 2614
7960 2.80914 3.62983 1.35286 51 39 23 0.436369 11 3234 10 3637
443 2.15158 3.26846 -1.31256 89 82 58 0.28386 2 1975 3 740 1 1683
7959 3.41934 2.77185 0.635993 173 165 150 0.495608 11 3910 10 3631
442 2.22166 3.28958 -1.24767 54 48 31 1.25626 2 1971 1 1680 3 731
441 2.19412 3.27513 -1.10727 131 126 105 0.465276 2 1958 3 2834 5 3332 1 1677
7957 1.95968 5.66578 3.38305 133 126 98 0.0642855 11 3740 10 3603
440 2.19602 3.25273 -1.11663 121 115 87 0.271877 2 2779 3 2832 4 2183 1 1676
439 2.19467 3.26913 -1.05609 116 109 83 0.227666 2 1949 3 2006 1 1675
7953 3.29158 3.40384 -1.24056 97 89 61 0.662463 11 4607 10 3518
436 2.12274 3.19847 -0.5984 76 71 53 0.325606 2 1944 3 1996 4 1022 1 1667
7952 2.92746 5.54422 0.183352 149 145 120 0.525298 11 3618 10 3496
435 2.23997 3.19601 -0.256545 161 158 137 0.624668 2 2772 4 2160 1 1662 3 1985
7951 3.07494 5.37167 0.463605 109 104 73 1.06669 11 3598 10 3471
434 2.59591 3.14462 -0.00381795 121 113 84 1.39651 2 1821 1 1660 3 417
7950 3.30655 5.05762 0.143449 115 113 88 0.889154 11 2905 10 3448
433 2.48154 3.22308 0.00313963 171 166 141 3.24814 2 1871 1 1659 4 2019
7949 3.6531 4.57898 0.173625 126 122 98 0.334384 11 3575 10 3427
432 2.60339 3.19383 0.0852889 121 115 90 0.447402 2 1867 3 1872 4 1964 5 3122 1 1657 6 2140
7908 1.86691 3.43323 -0.817945 88 80 58 0.488247 6 2620 7 1599
7947 -0.285697 3.96753 0.269405 96 91 67 0.374519 11 3482 10 3357
430 2.24307 3.20944 -1.50417 160 157 141 1.50506 2 2757 3 3529 1 1647
7946 -0.0908345 3.84773 -0.80863 92 86 56 0.15942 11 2748 10 3344
429 2.12653 3.19886 -1.33317 88 82 60 0.565267 2 1906 3 2019 1 1642 4 2197
7906 2.11266 5.68397 3.54697 111 106 81 0.877793 11 416 10 2021
7945 -0.141516 4.04949 -1.9899 58 54 44 0.0927043 11 2733 10 3328
428 2.13104 3.17452 -1.27826 103 96 72 0.502572 2 2751 3 2794 4 2195 1 1641
7905 3.27585 3.23761 -0.147674 101 91 58 1.08455 11 715 10 1995
7944 0.151658 4.31912 0.446731 180 175 151 0.427739 11 2710 10 3311
427 2.14183 3.15332 -1.28999 153 146 122 0.654043 2 1903 1 1640 4 3024
7904 3.2343 3.25349 -1.48809 108 101 73 0.39938 11 3110 10 1974
7903 3.18234 3.59343 -0.42443 108 99 69 0.0818163 11 2041 10 1957
7942 2.71195 3.09995 -0.13051 168 159 125 0.0265176 11 2606 10 3184
425 2.30965 3.14917 -1.23287 166 159 137 0.397951 2 1835 3 1893 4 701 1 1636
7940 2.64259 3.47473 1.50828 144 133 106 0.045293 11 2466 10 3153
423 2.65715 3.16202 -1.01393 58 51 33 3.00737 5 590 1 1628
7899 3.04179 5.40948 0.464709 152 149 124 0.173368 11 1878 10 1856
7938 2.9827 2.84856 -1.99296 85 82 68 0.136607 11 3378 10 3150
421 2.21456 3.18234 -0.719579 81 76 56 1.56564 2 1886 4 3006 1 1624 3 622 5 2447
7937 2.79082 3.23581 -1.24661 107 99 74 0.278347 11 2453 10 3112
420 2.10392 3.12831 -0.546515 100 94 72 0.448992 2 1881 3 1932 4 2168 5 1222 1 1622
7936 2.98452 3.28662 0.924735 176 168 151 0.226693 11 3278 10 3080
419 2.08717 3.14347 -0.515963 93 87 65 0.634599 2 1880 3 1992 4 2248 1 1621
7935 3.07211 2.91422 -1.99368 92 89 73 0.165067 11 3319 10 3075
418 2.10294 3.1215 -0.452404 157 152 133 1.10557 2 2741 3 3509 1 1620 4 3725
7933 3.10698 3.21472 -0.506479 86 78 48 0.184204 11 3834 10 3014
416 2.7944 3.04683 -0.038279 107 97 66 1.15959 2 2653 3 3362 4 4109 5 4676 1 1611
7932 2.1886 5.6961 3.46544 82 77 54 0.753786 11 2991 10 2929
415 2.62415 3.04945 0.0603177 111 101 69 1.63558 2 3351 1 1609 3 3953
7892 -0.230625 3.88558 0.297372 168 162 134 0.153068 11 1662 10 1683
7931 3.22637 3.23642 -1.48458 101 95 68 0.5491 11 3790 10 2918
414 2.56008 3.09175 -1.29462 160 153 129 0.617445 2 2669 3 3400 1 1595 4 4132
7929 3.28283 3.50647 -1.36734 93 86 59 0.71951 11 3686 10 2866
412 2.58984 3.05473 -1.32588 170 163 141 2.05023 2 1749 3 2641 1 1592
7928 3.57736 3.30504 -2.00754 55 51 45 0.936387 11 3643 10 2809
411 2.20537 3.02066 -0.484599 123 118 96 0.549509 2 3916 1 1583 3 4411
7925 3.77738 4.29643 0.444499 140 138 121 0.283297 11 2888 10 2773
408 2.28586 3.05468 -1.58339 157 152 130 0.939225 3 1795 1 1576 4 644 5 875
7924 3.97724 4.02263 0.288353 133 131 118 1.06601 11 1828 10 2736
407 2.33338 3.00941 -1.54375 178 174 157 0.592377 3 2678 4 2902 5 3828 6 3164 1 1575
7923 -0.131219 3.76628 -2.00692 100 94 77 0.22256 11 2770 10 2695
406 2.66339 2.99703 -0.998438 111 102 73 0.460932 2 2642 3 2618 4 3511 1 1570 5 3744
7922 -0.00805769 3.98525 -2.01257 79 76 63 0.00399844 11 2734 10 2655
405 2.64008 2.98245 -0.95573 130 125 99 0.288796 2 2640 3 2617 4 2814 1 1569
7920 0.61227 4.8801 4.77241 88 81 66 0.445068 11 1380 10 2595
403 2.63795 2.96813 -0.894691 115 108 80 1.23757 2 2638 3 3340 1 1565 4 4095
7918 2.61586 3.04941 0.0328188 178 172 149 0.202872 11 2652 10 2513
401 4.5432 2.78562 -0.474202 94 89 71 0.228509 2 3878 3 3867 4 4432
7917 0.904459 5.11165 4.83259 101 94 77 0.0373407 11 2464 10 2508
400 2.37985 2.95576 -1.31877 123 110 82 2.91634 6 2223 1 1555
7916 2.61743 3.05704 -1.35038 153 147 126 0.12031 11 1429 10 2492
399 4.40208 2.59525 -0.660528 68 65 45 0.338983 3 1588 1 1552 4 1648
7915 2.91195 2.79777 -1.99516 90 86 74 0.0726541 11 2643 10 2447 9 2067
398 4.42943 2.55485 -0.676645 120 118 98 0.71008 2 1661 3 2530 1 1551
7914 2.88026 3.02339 -0.139612 159 152 124 0.393984 11 2545 10 2418
397 4.42943 2.55485 -0.676645 120 118 98 0.71008 2 1660 3 2529 1 1550
7913 3.05454 2.90406 -1.60769 109 103 74 0.0225802 11 2527 10 2324
396 4.51366 2.53657 -0.431748 122 118 97 0.413022 3 2527 1 1548 4 2626
356 1.65693 4.32026 -2.01041 64 61 49 0.637805 2 1511 1 1294 4 1593
7873 2.95075 2.82825 -1.77723 119 112 91 0.163317 11 1451 10 1196 9 826
7912 2.9754 3.10221 -0.235915 110 100 67 0.0561983 11 3336 10 2301
395 4.52657 2.56937 -0.224197 118 112 80 0.30711 3 3256 1 1547
355 3.21508 5.17228 0.866942 94 88 59 0.794749 3 1328 1 1287 8 2956 9 2622
7872 2.81589 3.15184 -0.248406 93 87 60 0.0546568 11 1237 10 1139
7911 2.81587 3.54508 1.40839 137 129 106 0.142502 11 2300 10 2247
394 4.52312 2.57251 -0.0743194 118 113 84 0.971953 2 1676 3 1581 4 3367 1 1546 4 1641
354 3.20809 5.18903 1.86956 114 107 79 0.452462 2 1428 3 1319 1 1278
7871 2.81432 3.25993 0.83453 119 107 74 2.05318 11 3324 10 1116
7910 3.06982 3.26957 -0.335016 109 100 65 0.466503 11 2262 10 2118
393 4.52112 2.57116 0.0181977 117 111 81 0.378072 2 2581 3 3255 4 4012 1 1545
353 3.19903 5.15968 1.89671 136 131 110 0.0510712 2 2416 1 1276
7870 2.96861 2.94897 -1.46503 140 132 105 0.10538 11 1271 10 1069
7909 3.09112 3.26162 -0.263518 102 93 63 0.143495 11 3202 10 2117
392 4.32518 2.59734 -1.85409 83 79 61 1.44156 3 1573 1 1542
352 2.90874 4.95285 -0.779222 22 21 16 0.00093754 2 1435 1 1273
7869 2.97789 3.14365 -0.238777 88 79 52 0.409783 11 1119 10 1027
351 3.20369 4.97389 1.19002 124 118 92 0.236571 6 864 1 1265
7868 2.75768 3.5579 1.61342 191 184 173 0.932877 11 1041 10 955
7907 3.16511 3.28241 -0.270591 137 132 101 0.836994 11 3156 10 2037
390 2.74072 2.68271 -1.73171 145 139 118 1.03166 2 3876 1 1531 3 3884
350 3.39469 5.07312 1.56437 110 104 73 0.101076 2 1371 3 1289 1 1261
7867 3.08822 2.92271 -1.99368 77 76 66 0.218517 11 1196 10 950
349 3.25453 5.10623 1.81453 116 110 84 0.808362 2 1405 11 219 1 1259
7866 3.10875 3.01474 -0.594676 84 74 46 0.197416 11 1134 10 883
348 3.28405 5.08548 1.80628 117 111 81 0.131564 2 1403 3 1286 4 1271 1 1258
7865 3.12637 3.01124 -0.53397 169 161 133 1.85787 11 3311 10 878
347 3.27713 5.10126 1.81599 119 113 82 0.197235 3 1317 1 1257 2 1404
7864 3.08996 3.00873 -0.511501 135 122 90 0.44419 11 1130 10 877
346 3.31345 5.04085 1.77787 115 108 79 0.566369 2 1407 3 1287 1 1256
7863 3.03872 3.18519 -0.367164 100 88 57 0.318287 11 2347 10 864
7902 3.27075 3.34833 -1.44723 97 89 61 0.484171 11 3076 10 1937
385 2.65888 2.42437 -1.53884 97 92 75 2.894 6 1854 1 1477
345 3.30309 5.06183 1.79187 115 110 80 0.627433 2 1402 4 1270 1 1255
7862 3.08185 3.1381 -0.255887 129 122 91 0.229036 11 959 10 853
7901 3.19644 3.56356 -0.602345 116 108 78 0.881533 11 3043 10 1917
384 2.50064 2.17421 -0.664077 68 65 52 1.50879 4 2640 1 1443
7861 2.96898 3.37333 0.323637 122 111 76 0.184868 11 2320 10 830
383 2.25717 2.26545 -0.663819 76 72 59 1.95165 4 3391 1 1442
