# 3D point list with one line of data per point:
#   POINT3D_ID, X, Y, Z, R, G, B, ERROR, TRACK[] as (IMAGE_ID, POINT2D_IDX)
# Number of points: 528, mean track length: 4.17207
9900 -6.18692 1.40696 4.9451 122 113 106 0.224848 10 847 11 5449 12 6148 13 11092 23 5337 24 5761 25 5674 9 990
9902 -7.01368 1.20801 5.16668 78 67 57 0.659661 10 853 23 5195 9 992 12 3852 13 11760 24 5660 25 8352
9903 -6.28311 1.55524 5.00055 156 139 112 0.933227 13 9897 25 1245
9904 -6.28223 1.56796 4.91683 115 101 80 0.757089 10 858 11 5460 12 3861 13 9937 23 5341 24 5768 25 5676 9 994
9905 -7.21559 1.94724 4.97692 103 94 85 0.472799 10 873 11 5473 12 3872 13 9945 22 5366 23 5350 24 1472 25 1265 9 1002
9908 -16.5052 7.99328 5.4937 53 62 29 0.922778 23 1281 24 1537
9909 -12.3657 11.6956 5.19662 76 84 40 2.15223 24 5723 9 1081 10 5853
9911 -5.72483 0.988068 4.68173 124 100 76 0.381623 10 1109 11 5563 24 5908 9 1121 14 9807
9912 -5.72404 0.988463 4.68212 133 107 81 0.162924 10 1110 11 5564 24 5909 9 1122
9913 -5.79395 1.1204 4.7743 160 152 143 0.677383 10 969 11 5442 12 6204 13 11123 14 9808 23 5459 24 5910 25 8428 9 1123
9914 -5.82255 1.24226 4.73124 28 25 20 0.388114 10 971 11 5569 12 3936 13 9995 23 5461 24 5912 25 5800 9 1124
9915 -5.82255 1.24226 4.73124 28 25 20 0.388114 10 972 11 5570 12 3935 13 9996 23 5462 24 5913 25 5801 9 1125
9916 -5.87419 1.31984 4.72051 53 48 42 0.265997 10 973 11 5572 12 3937 13 9999 23 5463 24 1660 25 1451 9 1126
9917 -5.87563 1.31959 4.72079 58 52 45 0.152333 10 974 24 1661 25 1452 9 1127
9918 -5.89256 1.33037 4.68724 55 49 44 0.387497 11 1132 12 513 23 5465 24 1663 25 1453 9 1128
9919 -6.03462 1.37409 4.79989 135 125 101 0.227087 10 976 11 5452 12 3939 13 10000 23 5468 24 5915 25 1448 9 1129
9920 -6.08103 1.37307 4.86486 79 65 49 0.537346 10 975 11 5448 12 3938 23 5336 25 1239 9 1130
9921 -5.99813 1.35724 4.74724 62 51 36 0.238227 10 980 11 5453 12 3943 13 10001 23 5466 24 5917 9 1131
9922 -5.99813 1.35724 4.74724 62 51 36 0.238227 10 981 11 5454 12 3944 13 10002 23 5467 24 5918 9 1132
9923 -6.05089 1.40145 4.69316 45 40 35 0.645354 10 982 11 1135 12 516 13 8198 23 5471 24 1664 25 1454 9 1133
9924 -6.07905 1.41982 4.69495 125 118 109 0.272025 10 983 11 5575 12 3945 23 5472 24 1666 25 1458 9 1134
9925 -6.22735 1.56326 4.86566 71 63 55 0.804473 10 984 11 5461 12 6214 13 11096 24 5769 25 5808 9 1135
9926 -6.23326 1.57469 4.72547 38 35 31 0.203299 11 1138 12 3950 13 10005 24 1668 25 1459 9 1136
9929 -6.61553 1.83081 4.74357 77 70 61 0.56357 10 996 11 5472 12 3957 13 10011 23 5480 24 1680 25 1473 9 1144
9930 -6.87653 1.91836 4.74678 48 46 41 0.456121 10 999 11 5597 12 3958 13 10014 23 5488 24 1685 25 1476 9 1146
9932 -7.1897 2.09996 4.69963 51 49 45 0.357853 10 1003 11 5605 12 3962 23 5493 24 1695 25 1483 9 1150
9934 -6.90152 4.28748 4.72891 148 145 139 0.378641 10 1022 23 1495 24 5809 9 1168
9935 -6.91522 4.2883 4.72762 141 139 133 0.898049 10 1023 24 5808 25 8453 9 1169 10 4018 11 9957
9936 -6.81531 4.17479 4.58513 153 149 143 0.570532 10 1020 11 5654 23 1494 24 1750 9 1170
9937 -14.1878 9.90564 4.49971 49 60 26 0.811821 10 1060 11 8380 9 1208
9938 -14.2868 9.94761 4.50234 57 70 30 0.283697 10 1061 9 1209
9939 -13.4382 9.89133 4.85461 87 102 41 0.333402 10 1062 9 1210
9940 -13.3878 10.0562 4.60779 64 77 39 0.383517 10 1064 9 1214
9941 -5.5665 1.06324 4.40859 112 108 101 0.0331303 13 5684 14 5226
9942 -16.3383 -9.64131 4.87195 17 18 15 0.722273 11 1346 13 939 14 859 15 4027 16 6013 17 6757 9 1261
9944 -5.55253 0.628248 4.56466 113 105 93 0.135942 11 1363 12 653 9 1269
9945 -5.54941 0.630013 4.56451 108 101 91 0.285105 11 1364 12 652 13 8256 24 1900 25 5915 9 1270 14 7386 14 8889
9947 -5.55824 0.792667 4.50273 99 93 87 0.59272 10 1105 11 5760 12 4197 13 10110 14 8942 24 6037 25 5923 9 1272
9948 -5.68639 1.03541 4.64172 143 134 120 0.371678 11 1126 12 663 23 5457 24 1655 9 1273
9949 -5.68774 1.03495 4.64199 146 137 123 0.26841 11 1127 12 664 24 1656 9 1274
9950 -5.58574 1.01962 4.5755 89 72 55 0.986348 10 1107 12 4050 23 5633 24 1914 9 1275
9951 -5.63948 1.0519 4.59644 151 145 138 0.397399 10 1111 11 5568 12 4047 23 5635 24 1921 25 5926 9 1276 13 8265 13 10048
9952 -5.58151 1.05944 4.50879 121 107 94 0.192283 10 1113 11 5765 24 6045 25 5927 9 1278
9953 -5.66183 1.06125 4.61663 69 58 44 0.525611 11 1128 12 673 13 8264 14 8893 23 5458 24 1657 25 1661 9 1279
9955 -5.78225 1.24939 4.64283 106 91 71 0.492789 10 1114 11 5571 12 4052 13 10052 23 5464 24 5914 25 5802 9 1281
9956 -5.82215 1.2751 4.60435 40 35 30 0.230081 10 1115 11 5573 9 1282
9957 -5.86085 1.31864 4.57271 43 38 33 0.21156 10 1116 11 5574 12 4053 13 10053 24 6049 25 1671 9 1283 23 8110
9958 -5.81242 1.28936 4.50807 81 70 54 0.278161 10 1117 11 5776 12 4056 13 8274 23 5641 24 1929 25 1675 9 1284
9959 -5.99268 1.359 4.62343 39 35 29 1.37521 10 1118 11 5577 23 8024 24 5921 9 1285
9960 -5.91565 1.35978 4.56645 49 45 39 0.606916 10 1123 11 5580 12 4060 13 10055 23 5645 24 6051 25 1674 9 1286
9961 -6.0347 1.41147 4.60265 116 96 64 0.258131 10 1120 11 5579 12 4058 13 10056 23 5473 24 1665 25 1673 9 1287
9962 -5.91618 1.38128 4.46872 78 67 54 0.939279 10 1124 11 5777 23 5650 9 1289
9963 -6.00776 1.40953 4.50469 47 43 39 0.370165 11 1402 12 4062 23 5648 24 1935 9 1290
9964 -6.00742 1.40964 4.50478 46 43 39 0.479389 11 1401 12 4061 13 8277 23 5649 24 1934 25 1676 9 1291
9965 -6.22516 1.45584 4.57286 51 44 37 0.368446 10 1125 11 5582 12 4063 24 6054 9 1292
9966 -6.22329 1.56632 4.4465 88 80 70 0.414457 10 1281 11 5782 25 5940 9 1296
9967 -6.25243 1.5984 4.55804 89 85 78 0.241408 10 1127 11 1144 12 4071 13 10065 23 5657 24 1943 25 1681 9 1297
9968 -6.47811 1.78738 4.58013 58 53 46 0.486174 10 1142 11 5595 12 4075 13 10070 23 1679 24 1954 25 1693 9 1302
9969 -6.47764 1.78755 4.58019 57 52 46 0.480956 10 1141 11 5596 12 4076 13 10069 23 1680 24 1955 9 1303
9971 -6.78957 1.95432 4.51571 31 31 28 0.239226 11 1158 12 696 13 8298 24 1959 9 1309
9973 -7.06425 2.10117 4.44545 90 86 80 0.340431 10 1156 11 5791 12 4228 22 5670 23 5677 24 6069 25 1711 9 1312 8 1312
9974 -7.53986 2.26348 4.50455 83 75 66 0.856201 22 7945 23 5681 9 1320
9977 -10.0992 2.5259 4.63091 51 61 19 0.7306 7 3978 12 6299 22 5541
9978 -10.4184 2.82639 4.65473 110 114 47 1.59522 10 1172 12 6304 24 1725 11 5634
9979 -7.52028 3.45294 4.38 88 79 69 0.552759 11 5820 23 1732 9 1338 24 1997
9980 -7.27998 3.7845 4.52317 154 149 143 0.541824 10 4100 11 8365 23 1488 24 5949 25 8532 9 1340
9983 -6.07543 4.68762 4.38744 87 77 68 0.280671 10 1192 11 5669 23 5725 24 2021 25 1780 9 1355
9984 -6.40638 5.04926 4.37439 41 38 34 0.634829 24 2027 9 1360 10 1198 11 8373 25 1785
9985 -8.20814 9.36106 4.18687 127 118 108 0.274308 10 6040 9 1399
9986 -7.82354 9.18552 4.15236 106 96 84 1.05457 10 4146 24 2098 25 6024 9 1400
9987 -7.6938 9.34493 4.27749 105 93 81 0.315358 24 1842 25 1844 9 1401
9989 -10.4721 -4.48006 4.42082 20 21 18 2.24373 14 1123 9 1423
9990 -5.50158 0.478361 4.48719 106 98 90 0.429437 10 1257 11 5752 12 4187 24 6028 25 5912 9 1427
9991 -5.50158 0.478361 4.48719 106 98 90 0.429437 10 1258 11 5753 12 4188 24 6027 25 5913 9 1428
9992 -5.50048 0.593758 4.48507 62 55 46 0.4091 10 1259 11 5755 12 4191 13 10104 24 6030 9 1429
9993 -5.46697 0.685292 4.48404 147 132 114 0.625465 10 1261 11 5758 12 4193 13 10108 24 6032 25 5917 9 1430 14 8939
9994 -5.4691 0.684185 4.48458 151 136 119 0.551767 10 1262 12 4194 24 6033 25 5918 9 1431
9996 -5.33126 0.774006 4.3298 170 159 139 0.508869 11 1647 12 1115 13 8513 14 7594 24 2168 25 1904 9 1433
9997 -5.44427 0.964894 4.42331 143 140 135 0.515927 10 1265 12 858 13 8388 14 7491 24 1916 25 1911 9 1436
9998 -5.38583 0.837253 4.39285 173 163 149 0.324894 11 1376 12 4199 24 6203 25 6062 9 1437
9999 -5.34283 0.87185 4.35391 50 46 42 1.89678 10 1264 13 10112 14 9907 24 6204 25 6063 9 1438
10000 -5.55535 1.07381 4.38576 45 40 34 0.256016 10 1273 11 5772 12 4206 13 10117 14 8953 24 6213 25 1917 9 1439
10001 -5.62508 1.12036 4.46502 39 37 32 0.302274 10 1272 13 8399 14 8951 23 1649 24 1926 25 1669 9 1440
10002 -5.67718 1.20118 4.4492 28 25 21 0.39442 11 1391 12 870 13 8400 14 7500 23 1650 24 1927 9 1441
10003 -5.61761 1.17425 4.33592 51 45 39 0.283839 11 1653 12 873 13 8403 14 8955 23 5792 24 2174 25 1921 9 1442
10004 -5.64234 1.19638 4.32634 105 91 67 0.191788 10 1274 11 5938 12 4208 14 9012 23 5794 24 2175 25 1925 9 1443 13 8404 13 10189
10005 -5.64221 1.19653 4.32629 102 89 65 0.198386 12 4209 13 8405 14 9011 23 5793 24 2176 9 1444
10006 -5.74791 1.25843 4.45703 99 84 63 0.527152 10 1275 11 5774 12 4210 13 8406 23 5642 24 1930 25 1670 9 1445
10007 -5.81586 1.31131 4.41144 112 102 81 0.49448 12 878 13 8412 23 5644 24 1933 25 1926 9 1446
10008 -5.7496 1.27004 4.30378 37 34 30 0.510897 10 1276 11 5942 12 4211 13 10193 23 5796 9 1447
10009 -5.88954 1.35751 4.40958 38 34 28 0.31629 10 1277 11 5780 12 4213 13 10121 23 5651 24 6057 25 6075 9 1448
10010 -5.97763 1.40239 4.45091 55 48 40 0.550627 10 1278 11 5778 12 4212 13 10122 23 8114 24 6056 9 1449
10011 -6.01362 1.42555 4.40706 49 45 40 0.313776 11 1405 23 5652 24 1939 9 1450
10012 -5.9038 1.38592 4.34669 60 55 49 0.39094 10 1279 11 5781 12 4214 13 10123 23 5800 24 6220 25 1928 9 1451
10013 -5.92767 1.40789 4.32246 54 48 40 0.348432 10 1280 11 5943 12 4215 13 10124 23 5803 24 6221 25 1929 9 1452
10014 -5.92156 1.41778 4.28086 52 46 38 0.485012 11 1658 12 1133 13 8527 23 5804 24 2185 25 1931 9 1453
10015 -5.92172 1.41753 4.28113 52 45 38 0.493885 23 5805 24 2186 9 1454 13 8528
10016 -6.1958 1.53032 4.39615 48 41 35 1.08879 10 1283 11 5785 23 5655 24 6060 25 6076 9 1455
10017 -6.21864 1.5999 4.37985 68 62 53 0.166771 10 1284 23 5661 24 1950 9 1458
10018 -6.26305 1.69289 4.27116 98 92 85 0.752359 10 1287 11 5950 12 4221 13 10203 23 5813 24 6228 9 1461
10020 -6.53166 1.8556 4.409 138 134 128 0.438343 10 1292 11 1424 12 909 13 10130 23 5665 24 1961 25 1702 9 1466
10021 -7.01508 2.11511 4.16615 115 110 104 0.288799 10 1459 12 4362 23 5819 24 2216 25 1946 9 1471 22 5824
10022 -7.01568 2.11502 4.16632 116 111 104 0.247035 10 1460 12 4363 23 5820 24 2217 25 1945 9 1472
10023 -7.34183 2.27683 4.37767 79 70 59 0.404259 11 1436 12 922 22 8045 24 1970 9 1475
10025 -7.55419 2.35224 4.36581 72 64 57 0.949833 11 1444 12 4233 9 1480 10 1299
10026 -6.33105 3.44536 4.1401 140 132 122 0.4664 10 1478 23 1971 9 1498
10028 -6.50663 5.56146 4.07715 88 80 67 0.76407 10 1356 11 8563 24 2277 25 2017 9 1530
10029 -8.10381 7.34599 3.92903 108 97 81 1.81537 10 4216 24 2303 9 1551
10030 -7.92547 7.47614 3.95961 26 26 20 1.43383 23 2044 24 6134
10031 -5.72717 7.58436 3.99907 73 64 57 0.54529 25 2057 9 1578 10 4231
10032 -16.3703 -9.662 3.91812 39 39 37 0.448375 13 1243 14 1374 15 4181 16 6131 17 4792 9 1606 18 6022
10033 -16.5103 -9.76079 3.73976 26 27 24 0.827102 12 1087 13 5971 14 5490 15 7335 16 6214 17 6972 9 1607 10 1416 11 1866 13 10245 18 6105
10035 -5.2844 0.639971 4.29408 48 41 36 0.426106 11 1639 12 1102 13 8507 24 2162 25 1902 9 1611 14 7588
10036 -5.25046 0.680756 4.25403 46 43 38 0.289594 10 1423 11 5928 13 10182 14 9905 24 6202 25 8693 9 1613
10037 -5.19268 0.602808 4.19691 44 38 31 0.679878 10 1422 11 1896 12 1101 13 8629 24 6355 25 2128 9 1614 14 7692
10038 -5.19017 0.63864 4.20198 115 103 89 0.66266 10 1424 11 5927 12 4336 24 6354 9 1615
10039 -5.25292 0.800679 4.23922 51 48 44 0.348309 10 1425 11 5930 12 4337 14 9002 25 6205 9 1616
10040 -5.24162 0.746596 4.17901 37 34 30 0.391142 11 1899 12 1111 13 8636 24 2417 25 2134 9 1617
10041 -5.25424 0.823465 4.19302 114 103 91 0.603692 24 6362 9 1618 11 5931 13 10271 25 6206
10042 -5.25281 0.824304 4.19235 107 98 87 0.341328 24 6363 9 1619 11 5932
10043 -5.24623 0.855889 4.16432 46 43 39 0.54076 11 1906 12 1118 13 8640 14 7704 25 2141 9 1620
10045 -5.36571 0.954105 4.27305 39 37 33 0.588256 11 1649 12 1121 13 8519 24 2172 25 1910 9 1623
10047 -5.35689 0.951684 4.23642 41 36 31 0.341651 10 1428 11 5935 12 4341 13 10185 14 9007 24 6212 25 6207 9 1625
10048 -5.44159 1.02303 4.19301 59 56 50 0.389766 10 1429 24 6366 9 1626
10049 -5.44536 1.02613 4.11961 94 89 82 0.17482 11 1913 12 1321 13 8644 14 7712 24 2429 25 2143 9 1628
10050 -5.53488 1.09552 4.16586 28 27 24 0.386345 10 1435 11 5939 12 4343 13 10276 14 9075 23 8294 24 6370 25 6212 9 1629
10051 -5.53639 1.09932 4.1187 36 34 30 0.452963 10 1436 11 6094 12 4478 13 8645 14 9076 25 2145 9 1630
10052 -5.54786 1.11023 4.25899 34 32 28 0.711674 11 1654 12 1124 13 8522 14 9009 23 5789 24 2178 25 1920 9 1631
10053 -5.63845 1.19261 4.14147 36 34 30 0.488595 11 1922 12 4344 13 8651 14 9079 23 5975 24 2438 25 2149 9 1632
10054 -5.80126 1.3402 4.20259 56 44 34 0.540028 10 1438 11 1657 12 4347 13 10196 23 5799 24 2184 25 2156 9 1634
10055 -5.84117 1.38068 4.16817 47 44 39 0.246633 10 1439 11 5944 12 4348 13 10197 23 5980 24 2187 25 2157 9 1635
10056 -5.92726 1.43051 4.17459 51 46 39 0.448787 13 8530 23 5806 9 1636
10057 -5.94954 1.4443 4.15337 132 106 88 0.260796 10 1441 11 1663 23 5983 24 2191 9 1637
10058 -5.81346 1.35659 4.06559 33 29 23 0.367123 11 6099 12 4486 13 8659 23 2154 24 2447 25 2160 9 1639
10059 -5.85661 1.39922 4.08162 40 36 31 0.370222 10 1440 11 1932 12 4489 13 10280 23 5981 24 2448 25 2161 9 1640 13 8658
10060 -6.06452 1.50821 4.1831 123 111 85 0.214904 10 1447 11 5949 12 4352 24 6225 25 6218 9 1641 13 10199
10061 -6.00864 1.50955 4.12051 129 118 101 0.395223 10 1448 11 6103 12 4354 13 10283 23 5988 24 2449 25 6219 9 1642
10064 -6.75509 1.99127 4.15371 103 85 55 0.62287 10 1452 11 5955 12 4361 24 2213 25 1944
10069 -6.09942 5.19121 3.87413 58 53 47 0.191564 23 2249 24 6442 9 1716
10070 -6.61688 5.89428 3.83133 66 59 46 0.388834 10 1516 11 6171 9 1720
10071 -6.61688 5.89428 3.83133 66 59 46 0.388834 10 1515 11 6172 9 1721
10072 -7.38468 7.59619 3.70756 88 79 71 0.757562 24 2320 25 2303 9 1737
10073 -7.37837 7.51394 3.63397 61 55 49 0.198851 10 4445 23 2282 9 1738
10074 -6.1119 9.77061 3.64483 17 18 11 1.51668 23 2315 24 2357 25 2339 9 1771
10075 -15.7102 -8.29374 3.49103 75 87 38 1.8312 13 5978 17 4796 9 1773
10077 -5.16616 0.407896 4.0114 88 82 73 0.912812 10 4357 9 1776
10078 -5.14259 0.484931 4.11874 134 130 122 0.611057 11 1885 12 1298 24 6353 25 6197 9 1777 13 8622 13 10263 17 9036
10079 -5.14059 0.516075 4.12149 37 31 25 0.248103 11 1887 12 1299 13 8623 14 7694 24 6356 9 1778
10080 -5.12376 0.547609 4.0748 37 35 31 0.278464 10 1576 11 6082 12 4465 13 10264 14 9068 24 6357 25 6334 9 1779
10081 -5.15693 0.5368 4.15068 47 43 36 0.194633 11 1888 12 4461 13 8621 14 7691 24 2409 25 6200 9 1780
10082 -5.14643 0.618171 4.13554 41 37 31 0.256972 10 1578 11 6080 12 4462 13 10266 14 9070 24 6359 25 6201 9 1781
10083 -5.13036 0.627672 4.10597 133 119 96 0.241535 11 1891 12 4464 13 8632 14 9071 24 6360 25 6202 9 1782
10084 -5.12982 0.628004 4.10603 135 120 97 0.165729 11 1892 13 8633 24 6361 9 1783
10085 -5.1167 0.584148 4.04608 111 107 99 0.255508 11 1895 12 1305 13 8627 14 7762 24 6516 25 6338 9 1784
10086 -5.11669 0.584024 4.0463 106 103 96 0.201766 13 8628 14 7763 9 1785
10087 -5.11673 0.567332 4.02149 31 28 23 0.496483 10 1579 11 6084 12 4467 13 10319 14 9126 24 6518 9 1786
10088 -5.1213 0.565893 3.99462 86 79 67 0.484767 11 6198 12 4468 14 9127 24 6519 9 1788 10 1583
10089 -5.13299 0.649922 4.04473 30 27 22 0.967016 10 1582 11 1900 12 4470 13 8634 14 7765 24 6521 9 1790
10090 -5.13949 0.66887 3.99003 55 50 42 0.22702 11 2112 12 1484 13 8717 14 7767 24 2656 25 2386 9 1791
10091 -5.23465 0.839453 4.07053 30 28 24 0.399212 10 1587 11 6092 12 4475 13 10273 14 9073 24 6364 25 6349 9 1792
10092 -5.32661 0.922776 4.09431 70 66 58 0.312453 10 1588 11 6091 12 4476 13 10274 14 9074 24 6365 25 6209 9 1793
10093 -5.38406 0.966226 4.01275 71 63 50 0.250496 10 1591 11 1918 12 1324 13 8727 14 7775 24 2431 25 2401 9 1794
10094 -5.48838 1.05887 4.0834 60 56 50 0.415734 13 8648 23 5972 24 2435 25 2148 9 1795
10095 -5.48852 1.05887 4.08338 60 56 50 0.384573 11 1916 13 8649 23 5973 24 2434 25 2147 9 1796
10097 -5.54314 1.09201 4.01789 72 69 62 0.311581 10 1593 11 6097 12 4480 13 10277 14 9138 24 6373 25 6353 9 1798
10098 -5.54464 1.08064 3.95946 47 44 37 0.542763 10 1594 11 6219 12 4482 13 10336 14 9139 23 6128 24 6532 25 6355 9 1799
10099 -5.55051 1.07863 3.9296 93 87 76 0.383588 11 2131 12 4615 13 8733 14 9140 23 6129 24 2672 25 2404 9 1800
10100 -5.5701 1.10222 3.95495 116 109 98 0.259071 10 1595 11 2132 12 4483 13 8738 23 6130 24 2671 25 2410 9 1801
10101 -5.72393 1.25476 4.04961 95 70 56 0.617631 11 6098 12 4485 13 8655 23 5978 24 2442 25 2155 9 1802
10102 -5.79063 1.33149 4.04513 43 39 33 0.299113 11 1928 12 1332 13 8660 23 5979 24 2445 25 2159 9 1803
10103 -5.72049 1.23078 3.96296 40 35 30 0.696023 12 4487 13 8741 23 6136 24 2443 25 2415 9 1804
10104 -5.78421 1.29385 3.93725 38 34 28 0.475989 10 1598 11 6225 12 4488 13 8744 23 6137 24 2680 25 2420 9 1805
10105 -5.92629 1.44027 3.98173 37 33 28 0.442502 10 1599 11 6105 12 4494 13 10340 23 5986 24 2456 25 2428 9 1806
10106 -5.89199 1.3994 3.94417 34 31 27 0.494128 10 1602 11 6104 12 4493 13 10339 23 6141 24 6377 25 2422 9 1807
10107 -5.9956 1.50044 3.92338 42 37 30 0.36949 10 1604 11 6107 12 4495 13 10342 23 6143 24 6379 25 6361 9 1808
10108 -6.01601 1.5153 3.89935 81 73 54 0.29336 10 1605 11 6228 12 4628 13 10344 24 6539 25 6362 9 1809
10109 -6.01601 1.5153 3.89935 81 73 54 0.29336 10 1606 11 6229 12 4629 13 10343 24 6538 25 6363 9 1810
10111 -6.13074 1.58809 3.85683 23 22 17 1.34699 11 6234 13 8754 24 2693 9 1812
10113 -6.17623 1.61614 3.83635 25 23 19 0.763379 10 1612 11 6235 12 4632 13 10348 23 6146 24 2694 25 2434 9 1814
10114 -6.4557 1.85133 3.86497 104 98 87 0.233176 12 4506 13 10353 24 2471 25 2437 9 1819
10117 -7.02913 2.16077 3.82327 38 35 32 0.38535 10 1621 11 6120 12 4511 23 6011 9 1825
10118 -6.56528 3.03541 3.83718 70 66 60 0.124082 22 2226 23 2200 24 6409 9 1837
10120 -6.14409 3.32417 3.79154 83 80 71 1.45363 10 1638 11 8738 23 2447 24 6412 25 6392 9 1840 12 6626
10121 -5.64179 3.65193 3.788 113 110 103 0.944559 10 4501 11 8748 12 7794 23 6174 24 6572 25 6403
10122 -5.97411 5.09762 3.77448 60 55 48 0.408413 11 6297 23 2245 9 1872
10125 -5.84025 7.43876 3.74282 53 46 38 0.137262 10 4451 25 6293 9 1899
10126 -5.68174 7.48471 3.5967 31 28 23 0.918072 24 2583 25 6448 9 1902 10 6266
10127 -5.09899 0.469508 3.871 55 49 41 0.587727 11 6199 12 4598 13 10386 14 9175 24 6650 25 6484 9 1921 17 9084
10128 -5.1149 0.57038 3.88483 39 35 31 0.278685 11 6200 12 4599 13 8814 24 6522 25 6488 9 1922 10 1729
10129 -5.1407 0.672476 3.92533 96 90 83 0.143433 10 1731 14 9129 24 6528 25 6345 9 1924
10130 -5.14044 0.672768 3.92517 99 91 82 0.308234 10 1730 11 6204 12 4603 13 8720 25 6346 9 1925
10131 -5.13515 0.678228 3.84748 52 46 39 0.668927 11 2116 13 6268 14 5763 24 2910 9 1926
10132 -5.19019 0.727061 3.78907 106 104 96 0.115027 11 2348 12 1683 13 6272 14 7844 24 2912 25 2652 9 1928
10133 -5.2185 0.785285 3.93968 31 29 24 0.817276 10 1732 11 6213 12 4606 13 10331 14 9134 25 6347 9 1930
10134 -5.21083 0.763765 3.91286 21 21 17 0.255637 10 1733 11 6210 12 4607 13 8724 14 9179 24 6529 25 6348 9 1931
10135 -5.22984 0.780454 3.87419 24 23 18 0.455509 11 2120 12 1489 13 8821 14 7846 24 2661 25 2651 9 1932
10136 -5.24981 0.811524 3.7914 92 84 68 0.332695 10 1739 11 6359 12 4722 13 8822 24 6663 25 6498 9 1933
10137 -5.27934 0.836909 3.7773 83 77 64 0.437295 11 2354 13 8823 14 7849 24 2916 25 2657 9 1934
10138 -5.42702 0.938566 3.77325 38 35 29 0.474398 12 4730 13 8826 14 9184 24 2918 25 2663 9 1935
10139 -5.47827 0.994243 3.84465 27 25 21 0.401259 11 2128 12 1500 13 8828 14 7852 24 2669 25 2662 9 1936
10140 -5.55375 1.05999 3.86159 50 46 39 0.37893 11 2139 12 4616 14 9187 23 6133 24 2676 25 2409 9 1937 13 8737 13 10337
10141 -5.53631 1.03318 3.8478 41 39 35 0.691903 13 8830 14 7856 23 6132 24 2668 25 2408 9 1938
10142 -5.58553 1.05507 3.80735 30 27 23 2.32899 10 1743 23 8385 24 2677 9 1939 13 6282 14 5792
10143 -5.49303 0.994361 3.78848 57 51 41 0.447733 10 1741 11 6218 13 8829 14 9185 24 6673 25 2664 9 1940 12 1501
10144 -5.53589 1.02553 3.79261 25 23 19 0.429999 11 2129 12 1502 13 8831 14 9186 23 6277 24 2670 25 2665 9 1941
10145 -5.7159 1.16158 3.78137 25 24 20 0.481658 11 2141 12 1508 13 8834 23 6280 24 2679 25 2673 9 1942
10146 -5.60929 1.08387 3.78447 36 34 28 0.325797 10 1744 11 2140 12 4618 13 8833 14 9188 23 6278 24 2678 25 2670 9 1943
10147 -5.6341 1.10329 3.79033 108 104 94 0.214297 10 1746 11 6221 12 4619 13 10396 14 9189 23 8456 24 6533 25 2671 9 1944
10148 -5.63472 1.10318 3.7904 109 105 95 0.134961 10 1747 11 6222 12 4620 14 9190 24 6534 25 2672 9 1945
10149 -5.58213 1.05937 3.71726 30 28 23 0.626724 10 1745 11 2365 12 4734 13 8832 14 7937 23 6279 24 2921 25 2668 9 1946
10150 -5.74551 1.19366 3.80431 20 19 15 0.486404 10 1748 11 6226 12 4624 13 10400 14 9191 23 6135 24 2684 25 6508 9 1947
10151 -5.77373 1.2342 3.81432 35 32 25 0.370614 10 1749 11 2145 12 4625 13 8837 23 6138 24 2686 25 2418 9 1948
10152 -5.80972 1.27028 3.80046 23 22 17 0.446305 10 1750 11 6227 12 4626 13 10401 23 6140 24 2687 25 6358 9 1949
10153 -5.85416 1.24036 3.66069 80 74 61 0.338525 10 1894 12 4739 13 10454 23 6285 24 2923 25 2676 9 1950
10154 -5.91069 1.38723 3.82424 35 32 27 0.542859 10 1751 11 2149 12 4627 13 10402 23 6142 24 2689 25 2427 9 1951
10155 -5.96507 1.42918 3.82061 31 28 21 0.38212 11 2151 13 8841 24 2690 9 1952
10156 -6.00493 1.42033 3.69169 39 35 29 0.350841 10 1752 11 6377 12 4741 13 10404 23 6288 9 1953
10157 -6.04177 1.50357 3.80997 40 36 28 0.750532 10 1753 11 2156 13 10403 23 6145 9 1955
10158 -6.14661 1.51649 3.62912 106 96 81 0.211701 11 2379 12 4746 13 8946 23 6292 24 2933 25 2685 9 1958
10159 -6.27382 1.74108 3.63035 38 35 30 0.571539 12 4755 9 1960
10160 -6.93545 2.1073 3.4511 95 92 86 0.472159 10 1917 11 6398 23 6310 24 6701 25 2704 9 1967
10161 -6.31812 3.1008 3.6019 78 72 64 0.847885 11 8820 24 6565 9 1976 12 7784
10164 -5.26192 4.27067 3.73405 44 40 35 0.321674 10 1794 11 8840 23 2473 24 2761 9 1995
10165 -5.69142 4.85166 3.5739 75 70 57 0.769974 10 1803 11 8850 24 2781 25 2776 9 2014
10166 -5.55888 6.73433 3.43098 94 104 39 1.25081 10 4642 23 2531 9 2034
10168 -5.32099 7.87347 3.46772 26 26 20 0.65668 24 2837 25 2584 9 2058
10169 -5.32099 7.87347 3.46772 26 26 20 0.65668 24 2836 25 2585 9 2059
10171 -5.1187 0.541647 3.7584 44 39 32 0.297039 11 2343 12 1676 24 6655 25 6492 9 2078
10172 -5.09783 0.486677 3.68262 26 24 18 0.987211 11 6349 12 4717 13 8917 14 9235 24 6805 25 6610 9 2079 10 1868 17 9104
10173 -5.11047 0.502844 3.71559 47 40 31 0.492936 11 2344 12 1678 14 7920 9 2081
10174 -5.10735 0.528213 3.63718 57 51 39 0.429958 11 2590 12 4718 13 8921 24 6808 9 2082 10 1869
10175 -5.11878 0.577699 3.70808 30 27 20 0.295369 11 2345 12 1680 13 8918 14 7922 24 2909 25 2877 9 2083
10176 -5.18127 0.708601 3.77021 72 65 57 0.841063 11 2350 12 1684 13 6270 14 7845 24 2911 25 2653 9 2085
10177 -5.15584 0.685951 3.68481 126 115 100 0.211666 11 6353 13 6433 14 7928 24 6658 25 2888 9 2086 10 1872
10178 -5.15539 0.686078 3.68492 124 114 100 0.181044 13 6434 14 7927 25 2889 9 2087
10179 -5.36206 0.890551 3.72173 38 35 29 0.298814 10 1876 11 6360 12 4725 13 8825 14 9247 24 6664 25 2660 9 2089
10180 -5.37541 0.898765 3.65585 37 34 28 0.264978 10 1879 11 6367 12 4729 13 8927 14 9248 24 6671 25 2896 9 2090
10181 -5.31484 0.863151 3.62251 59 56 50 0.575398 11 2360 13 8929 24 3135 9 2092
10182 -5.49146 0.986156 3.6538 89 84 71 0.129133 10 1880 11 6368 25 6504 9 2093
10184 -5.51683 1.01243 3.60626 92 79 56 0.417245 11 2364 12 1694 13 8932 24 2920 25 2904 9 2095
10185 -5.7424 1.1465 3.58353 26 27 20 1.1408 10 1893 11 6373 12 4737 14 9251 23 6282 24 6679 25 6628 9 2096
10186 -5.79219 1.19492 3.66141 108 101 89 1.58128 10 1892 11 2370 12 4738 13 8935 23 2620 24 2922 25 6514 9 2098 13 10452 14 7939
10187 -5.88491 1.25753 3.64777 21 21 17 1.58455 10 1895 11 6375 13 10455 23 6286 25 2677 9 2099 13 8936 24 2924 24 6682
10188 -5.9566 1.30126 3.59321 65 59 49 0.31189 11 6378 12 4740 13 10457 25 6518 9 2101
10190 -6.08053 1.4726 3.57182 45 39 29 0.639157 10 1899 11 6382 12 4750 13 10460 23 6293 25 6521 9 2104
10192 -6.35 1.68682 3.50393 92 84 68 0.40819 10 1902 11 6391 12 4756 13 11415 23 6300 24 6696 25 6526 9 2110
10193 -6.53271 1.85299 3.45733 49 45 39 0.363648 11 8813 12 6684
10194 -7.00531 2.15965 3.4127 37 33 30 0.452547 12 4763 9 2116 22 6247
10195 -6.9413 2.10152 3.33555 31 29 26 1.69301 11 2649 12 4898 23 2644 24 2945 9 2117
10196 -6.84118 2.32019 3.28575 111 106 74 0.780936 10 1921 9 2119
10197 -6.64491 2.9402 3.2985 19 19 16 1.9989 23 2653 9 2125 25 6644
10198 -6.07725 3.16506 3.44205 113 122 85 0.675785 22 6254 23 6318 24 6714 25 6535 9 2126 10 4602
10200 -5.42034 3.61556 3.4508 67 68 44 1.43286 10 2080 23 2664 24 2967 25 6649 9 2136 12 7861
10201 -5.13688 4.31415 3.46145 39 46 18 1.33215 10 4702 25 6659 9 2151
10202 -4.95203 5.51466 3.43134 79 95 31 0.98384 10 4713 24 3002 9 2162
10205 -5.20646 7.55365 3.40618 54 68 23 0.835975 24 2835 25 6577 9 2178
10206 -5.16973 0.418423 3.60037 23 24 16 1.64747 11 2587 12 4866 9 2194
10207 -5.084 0.468413 3.49504 32 41 17 1.9401 24 6927 9 2196 11 2594
10209 -5.14405 0.643683 3.59552 22 22 15 0.448744 11 2602 12 1896 13 8924 14 8000 24 3120 25 2885 9 2199
10210 -5.17151 0.642575 3.51683 12 14 10 0.549349 11 2604 12 4869 14 9284 24 6814 9 2200
10211 -5.23504 0.74631 3.55203 10 11 8 0.523419 11 2603 24 3126 9 2201 14 2460
10213 -5.22317 0.819588 3.51499 42 55 25 0.797846 11 6521 24 6819 9 2205 10 2049
10214 -5.15045 0.823219 3.44941 44 57 23 1.02737 11 6639 24 3318 9 2206 10 2050 25 6745
10215 -5.18996 1.02234 3.45418 42 50 20 0.847951 11 2822 12 4995 25 3101 9 2212
10216 -5.26144 1.18266 3.51138 94 110 62 1.2375 10 2053 11 2629 12 1922 23 2802 24 3145 9 2215
10217 -5.26278 1.09586 3.45721 26 33 14 1.01982 13 10510 25 3104 9 2216 12 4997 14 8087
10219 -5.09854 1.34503 3.43145 100 89 40 1.28857 11 8957 23 6504 24 6823 9 2219 13 10563
10221 -5.19929 1.39386 3.46559 54 63 25 1.46928 10 4671 9 2221 13 11471
10222 -5.59604 1.53271 3.48036 51 58 17 0.814055 12 4887 9 2224
10223 -5.32061 2.12392 3.39483 95 102 49 1.11786 10 2058 23 2819 9 2229 11 8963
10224 -5.1204 2.41575 3.38202 71 81 26 0.444978 10 2160 23 3008 9 2231 24 6832
10225 -5.27905 2.73686 3.37613 72 76 28 0.0029745 23 2834 9 2235
10226 -5.20731 3.041 3.37088 87 81 38 0.93392 10 2074 24 6836 11 8970 12 7893 25 6770
10227 -5.16257 3.13863 3.37052 70 67 29 1.1343 10 2076 11 2866 23 2843 24 3184 9 2238 12 2311
10228 -5.04805 3.14677 3.36433 101 103 41 1.34134 10 2172 9 2239 11 6664
10229 -5.16069 3.52868 3.36437 54 62 25 1.33736 10 2085 24 3191 12 6891
10230 -5.45765 3.5684 3.39516 39 44 21 1.82351 10 4696 11 8978 25 6648 12 7897
10232 -4.99509 3.90151 3.39696 74 83 24 0.573387 23 2855 24 3197 9 2255
10233 -4.88434 3.89348 3.39163 99 110 44 0.449958 10 4767 24 3198 9 2256
10234 -4.73262 4.38876 3.40588 84 82 32 1.03434 10 4773 11 10394
10235 -4.53927 5.77928 3.39215 49 60 13 0.432384 10 2208 9 2278
10236 -4.16288 6.55848 3.42494 60 80 21 0.188866 24 3032 9 2299
10237 -4.34478 6.93123 3.42193 89 106 35 0.960864 23 6359 24 3037 9 2300
10238 -4.88824 1.21384 3.38762 86 90 37 0.382533 10 2144 9 2336 24 6935
10240 -4.95458 1.35523 3.40807 42 51 18 1.02918 23 2979 9 2340 11 2830
10241 -4.94817 1.3907 3.39842 54 66 25 2.14261 10 4748 24 6938 9 2341 12 6805 23 8597
10244 -5.03681 1.36492 3.40731 95 92 56 2.44555 10 2148 24 3328 9 2345 11 6644 12 5000
10245 -5.00274 1.81194 3.38497 58 69 26 0.760589 10 2156 11 6650 12 5007 23 2988 24 3340 9 2349 25 3119
10246 -4.75155 2.40171 3.36261 88 84 38 0.696655 10 2159 24 3357 9 2355 11 6769
10249 -4.52824 2.91572 3.37106 88 95 35 0.897219 10 2170 9 2360 11 6780
10252 -4.26152 4.15949 3.36331 76 89 27 0.403858 10 4843 23 3037 24 3378 9 2370
10254 -4.47027 4.37334 3.36709 59 74 20 0.34027 10 2188 11 6806 24 3210
10257 -4.43856 4.78019 3.36183 92 101 40 0.456858 10 4779 24 3220 9 2383
10258 -4.32468 5.35679 3.36724 128 129 71 0.21188 24 3229 9 2388
10259 -3.84031 6.53846 3.39747 67 83 25 0.263802 24 3246 9 2408 25 3011
10260 -3.56258 6.86528 3.40048 72 81 26 0.686691 24 3252 25 3018 9 2416
10261 -4.30439 1.80557 3.36063 124 113 62 0.771489 10 2267 9 2444 11 6753
10262 -4.20574 1.90397 3.37611 76 77 26 1.37299 23 6605 9 2445
10263 -4.36899 2.03153 3.36806 139 126 95 0.380023 10 2269 23 3183 9 2451 11 9027 24 6949
10264 -4.17324 2.36546 3.35911 96 98 41 1.19687 10 4833 23 3188 9 2459
10265 -4.31837 2.48319 3.3662 110 106 47 0.660176 10 2279 9 2460 11 9113
10266 -4.01363 2.75761 3.36715 109 114 49 1.41476 23 3198 24 3561 9 2466
10267 -4.25196 2.80603 3.35908 128 121 68 0.237862 10 2285 9 2468
10268 -4.31938 2.87204 3.36328 89 91 40 0.589381 10 4836 24 6956 9 2470
10270 -4.13683 3.01646 3.36191 107 107 58 1.13619 10 2288 23 3204 9 2472 24 3363
10271 -4.06684 3.04344 3.36253 124 118 63 1.00878 10 4837 9 2473 11 10419
10272 -3.95356 3.24367 3.3425 140 129 66 1.04447 24 3569 9 2474 11 7015
10273 -4.102 3.23434 3.34872 154 139 93 1.12053 10 2290 23 3208 9 2476 11 6901
10276 -3.96569 3.86907 3.35749 95 101 42 1.2566 10 4841 9 2487
10277 -4.07885 4.19184 3.3597 80 81 32 0.54154 10 4846 23 3039 24 3381 9 2491
10278 -3.81234 4.38366 3.3462 86 95 35 1.18615 10 4937 23 3042 24 3389 9 2496
10279 -3.81234 4.38366 3.3462 86 95 35 1.18615 10 4938 23 3041 9 2497 24 3390
10280 -3.9407 1.9917 3.34932 132 121 65 0.619511 10 4899 9 2582 24 9268
10282 -4.03641 2.12099 3.34971 88 88 32 0.212237 10 2399 9 2587 11 9107
10283 -3.92424 2.34692 3.3241 128 115 73 0.24499 10 2405 9 2591
10285 -3.87173 2.98816 3.35766 123 111 58 2.48927 25 3335 9 2598 12 8001
10286 -3.8681 3.04067 3.35063 89 78 36 0.223772 10 2415 23 3205 24 3564 9 2599 11 7011
10287 -3.8661 3.04118 3.35115 90 79 36 0.277593 10 2416 9 2600 24 3565
10288 -3.92106 3.06259 3.34977 128 119 64 0.499034 10 4907 23 3206 9 2601
10289 -3.69677 3.59556 3.34755 87 81 38 0.24513 10 4916 23 3218 9 2608
10290 -3.55404 4.19384 3.33317 99 92 41 1.50489 10 2558 9 2623 11 3661
10291 -3.59547 4.61311 3.3376 70 71 30 1.1627 24 3401 9 2631 10 4942
10292 -3.42634 4.92812 3.33497 123 116 56 2.30559 24 3415 9 2633 10 6507
10294 -3.55427 2.56965 3.32635 62 75 18 0.712981 10 5003 9 2697
10295 -3.59252 2.65891 3.32335 70 77 33 0.68999 10 2529 9 2700 11 7116
10296 -3.44052 2.63657 3.31837 54 59 24 0.717228 12 7091 23 3379 24 3713 9 2703 11 7114 25 3506
10298 -3.56508 2.84267 3.32115 62 54 24 0.482196 10 2533 9 2708 11 7126
10300 -3.5977 2.96149 3.32314 79 84 38 0.913424 24 3566 9 2714 11 9250
10301 -3.36911 4.49462 3.32175 127 115 63 0.619397 10 5035 24 3597 9 2743
10302 -3.2906 1.88552 3.27807 126 110 82 0.554654 11 7232 9 2803 10 2614
10303 -3.2906 1.88552 3.27807 126 110 82 0.554654 11 7233 9 2804 10 2615
10304 -3.25945 1.95069 3.28089 90 76 46 0.672479 11 7234 9 2806 10 2616
10305 -3.27021 2.09597 3.28657 60 58 23 0.319615 24 3867 9 2809 10 2620
10306 -3.32243 2.30961 3.28584 112 100 44 0.203947 10 2629 9 2816 11 7248
10307 -3.22424 2.48602 3.27946 91 88 45 0.483437 10 5189 9 2818 11 9325
10308 -3.33433 2.53883 3.28083 124 110 70 0.34411 10 5088 9 2822 11 9324 12 8702
10309 -3.32995 2.59925 3.29244 77 83 31 0.46101 10 6536 9 2823 11 9326
10310 -3.3437 2.66542 3.30487 123 111 63 1.92088 10 2640 9 2825 11 7258 12 7150
10311 -3.30014 2.89819 3.28382 61 56 22 0.441336 10 2648 9 2832 11 7265
10312 -3.25324 3.07643 3.29633 77 81 27 0.573717 23 3566 9 2839
10314 -3.1475 3.08443 3.28092 64 75 26 0.157921 10 2770 9 2842
10315 -3.13976 3.43453 3.2936 62 57 27 0.400203 10 5199 24 3733 11 10607 25 7151
10316 -3.02598 4.0576 3.29606 73 72 26 1.13279 24 3744 9 2861 10 6601 11 11418
10317 -3.00125 4.04292 3.2872 136 127 69 0.791098 10 5211 24 3745 9 2863
10318 -3.03212 4.73702 3.30868 47 58 20 0.881677 24 3603 9 2874 10 6609 25 3562
10320 -3.22216 1.74895 3.25686 108 97 64 1.16666 24 4061 9 2916 10 2739 11 7226
10321 -3.0023 2.54136 3.25763 188 164 144 0.0602749 10 2866 9 2934
10322 -3.00315 2.54091 3.25705 180 158 136 0.269957 10 2865 9 2935 11 7341 12 7247
10323 -3.15683 2.57467 3.26645 124 109 58 2.18133 10 2762 24 3884 9 2936 11 9393 23 3547 25 7249
10324 -3.13632 2.63149 3.27333 70 81 25 1.08137 10 2764 9 2940 11 7344
10325 -2.99214 2.81414 3.24939 135 116 90 0.893169 10 5269 9 2946 11 9458
10326 -3.13575 2.91085 3.27391 45 51 17 1.56993 10 5194 12 7257 9 2950 11 7350
10327 -3.03627 3.08375 3.26045 80 91 28 0.0384371 23 3567 9 2953
10328 -2.95101 3.22725 3.26671 135 123 68 1.06704 10 5273 24 3905 9 2957
10329 -2.84093 3.70496 3.27849 74 79 29 1.02348 10 2894 9 2970 11 7600
10330 -2.66464 5.25511 3.28347 80 83 26 0.290161 24 3777 9 3005
10331 -2.87008 3.0589 3.24536 44 43 17 0.689692 10 2881 23 3761 9 3064
10332 -2.78248 3.10808 3.23126 132 113 76 0.62421 10 3015 9 3065 11 7581
10333 -2.7466 3.25259 3.2408 79 72 30 0.615938 10 3021 9 3068 11 9570
10334 -2.70221 3.66488 3.24302 127 109 81 1.25639 10 5364 9 3073
10335 -2.69787 3.73863 3.25078 176 145 115 0.304933 10 5369 9 3075 11 10743
10337 -2.66549 3.87001 3.24914 74 63 30 1.06062 10 3034 23 3785 9 3083
10338 -2.71443 2.91311 3.22733 73 76 30 1.62359 10 3008 9 3169 11 7669
10340 -2.76008 2.98352 3.21638 136 122 93 2.50206 10 5347 9 3174 11 9564
10341 -2.76008 2.98352 3.21638 136 122 93 2.50206 10 5348 9 3175 11 9565
10342 -2.68111 3.04432 3.21936 111 103 58 1.02873 10 3151 9 3177 11 9568
10343 -2.64218 3.21315 3.22138 53 48 23 0.251467 10 3156 9 3182 11 9621
10344 -2.61359 3.54541 3.22799 94 86 45 0.356504 10 3169 9 3192 11 9630
10345 -2.63148 3.63352 3.24328 96 94 48 0.26806 10 3174 9 3194
10346 -2.62067 4.0122 3.24331 88 79 43 0.401369 10 3191 9 3200
10347 -2.74519 2.22039 3.20139 42 36 21 0.388352 24 4282 9 3275 10 2988
10348 -2.61616 2.97845 3.21159 120 107 63 0.497759 10 3147 9 3299 11 9616
10349 -2.58388 2.9974 3.19645 100 98 47 1.53864 10 5484 9 3300 24 4305
10350 -0.520637 4.09093 4.26276 147 135 105 0.211256 24 2802 9 3304
10351 -2.52105 3.50794 3.21044 131 114 84 0.141187 10 5496 9 3312
10352 -2.55504 3.52211 3.22223 95 87 48 0.520796 10 5493 23 3961 9 3313 24 4129
10353 -2.23053 4.35807 3.21842 83 83 30 1.16662 23 3992 9 3444
10354 -18.0658 11.8674 13.1864 245 247 249 0.432226 9 3557 22 4581
10355 -20.9887 10.0803 12.9838 118 122 72 0.513719 22 136 23 4608 24 4964
10356 -20.8112 10.3048 13.0127 111 120 62 3.7131 10 3501 23 7486
10357 -20.6815 9.26913 11.6629 166 163 127 1.48855 22 4682 9 3672
10358 -15.5114 10.2595 9.03045 56 68 31 2.19863 22 7533 9 3720 5 10591
10360 -18.076 -9.16425 9.3679 45 47 49 0.289083 15 7070 17 7873 9 3778
10361 -19.854 -8.70204 10.3322 56 57 57 1.6058 24 9983 9 3779 10 3654 11 8031 17 8779 12 6003 15 7795 25 9824 13 9823 14 8704
10362 -22.8757 9.38536 10.1036 245 245 245 0.983851 11 8012 9 3782
10364 -18.0531 -9.1507 9.13384 67 69 70 0.509384 15 7071 16 7845 9 3812
10366 -24.9241 -7.13198 10.7707 109 108 110 1.20559 10 3687 14 9700 23 7632 24 8101 9 3815 11 8033 8 3593
10367 -34.4805 -4.7382 12.0509 116 117 120 1.27949 13 11009 14 9696 9 3817
10368 -15.8916 8.77673 7.64915 35 45 19 0.710801 10 3696 24 5334 9 3827 25 732
10369 -17.9906 -9.10346 8.10262 19 19 19 0.318535 16 7046 17 7897 9 3863
10370 -28.7387 -6.16234 10.1409 61 62 60 1.2851 10 3721 11 8095 12 6018 14 9712 23 9303 25 8101 9 3866
10373 -20.3591 -8.4125 8.14289 78 80 78 2.23912 13 9871 14 8753 15 7835 9 3923
10374 -18.3428 -7.39277 7.79016 118 120 121 2.89025 12 3746 25 8098 24 8207
10375 -21.5146 -8.31926 7.86569 125 129 130 1.51185 11 5242 12 3751 13 9875 14 7211 24 8290 25 8164 9 3924 10 733 10 3834 13 8031 15 7097
10376 -21.5675 -8.21336 7.91652 29 30 30 1.13371 10 3835 12 6084 13 9874 14 8755 15 8375 24 10115 25 9954 9 3925 11 8133
10378 -10.2664 -0.301597 5.95981 170 161 48 0.30269 10 739 9 3927
10379 -35.5739 -4.12891 10.0815 154 167 169 2.11928 11 5184 13 11032 23 4951 25 5394 9 3931 24 8304
10380 -38.621 -3.23368 10.7708 110 112 113 2.12125 7 5536 12 3693 14 8718 23 646 9 3934 11 8099 8 5699
10383 -46.7633 7.24999 10.7198 104 114 66 0.706421 10 3791 12 6060 23 5113 9 3940 25 5405
10384 -16.7036 7.82165 6.76358 58 65 39 2.93444 10 3799 11 10889 23 5124 24 5569 25 8181
10385 -13.8609 10.709 5.91338 85 99 50 2.91295 10 5790 24 8340
10386 -13.0139 11.9243 6.16865 30 35 22 1.06818 10 3760 24 5601 9 3974
10387 -13.0139 11.9243 6.16865 30 35 22 1.06818 10 3761 24 5602 9 3975
10388 -19.8824 -8.55295 6.91835 93 94 95 0.644181 10 837 12 3821 13 8099 14 7258 17 7936 24 8374 25 8251 9 3995 11 5319
10389 -23.2987 -7.7193 7.90454 29 30 30 0.915558 10 3837 12 6086 13 9877 14 9741 24 8291 25 9955 9 3996 11 8134 23 9356
10391 -46.3101 7.34957 9.9662 80 90 50 0.756365 8 3845 10 3865 11 8158 23 7789 24 8317 9 4025
10392 -46.5149 6.34748 9.08356 88 94 61 0.743458 10 3866 11 8205 23 7880 25 8284 9 4026 8 3844
10393 -46.1601 9.55084 9.99235 204 206 198 2.09773 8 3847 10 3868 11 9870 12 8225 23 7791 9 4029
10394 -15.6404 8.244 6.01715 79 88 39 0.773769 8 3856 11 9877 9 4037
10395 -13.0381 10.2516 5.46972 30 31 22 1.4819 10 5845 9 4050
10396 -13.2492 10.9036 5.41231 24 27 14 1.4266 10 5846 23 1044 9 4056
10397 -12.7792 11.664 5.56051 25 27 17 2.67746 10 5851 24 8439 9 4062 23 5273 6 1272
10398 -20.0538 -8.55891 6.8294 187 188 187 1.50634 10 3902 11 5320 12 350 13 8100 14 7259 24 8375 9 4079 10 838
10399 -20.1178 -8.51513 6.38887 85 88 89 0.491238 15 7866 24 10241 25 10061 9 4080
10401 -21.509 -8.17518 6.53014 57 58 55 0.899141 10 3906 12 3924 15 7870 24 8467 9 4082 11 5435 13 8169 13 9981
10403 -6.12352 1.34038 4.9473 73 60 50 0.904932 10 3913 11 8266 12 6146 13 11091 23 7938 24 8480 9 4090
10404 -6.19258 1.37794 4.97839 65 57 50 0.824207 10 3914 11 8187 13 11781 23 7939 24 8478 25 8354 9 4091 12 6147
10405 -6.10554 1.35226 4.90934 148 140 130 0.672289 11 5446 12 3854 13 9934 23 7940 24 5760 25 5671 9 4093 10 848 10 3916
10406 -6.10791 1.35115 4.90901 152 143 132 0.557737 11 5447 23 7941 25 5672 9 4094 10 849 10 3915
10407 -6.14641 1.40108 4.88885 59 49 39 0.505078 10 850 11 5451 13 9935 23 7942 24 5762 9 4095
10410 -6.69565 1.72663 5.007 63 55 48 0.497159 10 3924 11 8190 12 6155 13 9898 23 7948 24 5773 9 4100 25 5681
10411 -7.09414 1.77861 5.07578 86 77 68 1.0488 10 3923 24 5775 25 5683 9 4103 11 5337 11 8191
10412 -7.05578 1.82437 5.01489 138 131 117 0.576355 11 5338 23 7953 24 5777 9 4104
10414 -14.4885 8.59947 5.16416 25 33 15 1.57153 8 4056 10 3961
10415 -13.8044 10.0263 5.19508 73 85 33 2.41445 10 5903 23 5407
10416 -12.9905 10.7443 5.30238 46 61 23 2.69593 10 5847 24 8435 25 8390
10417 -12.8472 11.7496 5.05288 50 63 26 3.3596 10 3979 24 5859
10419 -5.7247 0.827418 4.69804 135 132 128 0.332114 10 965 11 5562 12 6276 13 9992 14 9805 24 5907 9 4162
10420 -5.82677 1.19942 4.76028 49 45 41 1.05139 12 6205 13 11124 14 10394 23 8021 9 4164
10421 -5.85746 1.30946 4.68771 108 90 63 0.257197 10 3998 11 8344 12 6208 13 11127 23 8023 24 8558 25 5804 9 4165
10422 -5.85746 1.30946 4.68771 108 90 63 0.257197 10 3999 11 8345 12 6209 13 11128 23 8022 24 8557 25 5805 9 4166
10423 -6.08339 1.38586 4.78235 33 30 25 0.968779 10 977 11 5455 13 11131 23 5469 24 5916 25 5803 9 4167 12 3940 12 6210
10424 -6.15554 1.42727 4.80991 25 24 20 0.537828 10 979 13 11093 23 8026 24 5919 25 5807 9 4168
10426 -6.23286 1.57635 4.76402 127 121 113 0.214794 10 4005 11 8273 12 6216 13 11135 24 8562 25 8431 9 4173
10427 -6.14692 1.45196 4.70834 26 24 20 0.491823 10 4003 11 8346 12 6213 13 11133 23 8030 24 5924 25 5809 9 4174
10429 -14.5324 8.42725 4.96208 44 55 22 3.21951 10 1048 23 5402
10430 -12.7184 16.2039 4.29101 38 44 30 2.2741 23 8089 24 8641 6 5953
10431 -18.2271 -9.24852 5.18681 96 99 98 2.78351 13 708 9 4252 15 426
10433 -5.56554 0.743212 4.53612 52 46 40 0.72642 10 4067 11 5759 12 4045 13 10042 14 8890 24 6035 25 5922 9 4256
10434 -5.63176 0.970042 4.61045 127 117 101 0.700562 10 4068 11 8340 12 6277 13 11165 24 8664 25 8516 9 4258 14 10407
10436 -5.58368 1.04629 4.48178 39 34 28 1.11392 10 4168 11 8415 12 6361 13 11223 14 9877 23 8105 24 6042 25 8520 9 4260
10437 -5.67558 1.13386 4.57365 39 37 33 0.436753 10 4071 11 8343 12 6280 13 11168 14 9842 23 8107 25 5930 9 4261
10438 -5.66284 1.14146 4.52051 46 44 39 0.257635 10 4072 11 8417 12 6281 13 10049 14 9843 23 8108 24 6043 9 4262 11 5770
10439 -5.66457 1.14108 4.52045 49 46 40 0.176748 11 5771 13 10050 24 6044 9 4263
10440 -5.63919 1.13317 4.49133 90 87 80 0.198929 11 5768 12 6364 13 10051 14 9844 23 8109 24 6048 25 5931 9 4264
10441 -5.78655 1.2684 4.50466 50 42 34 0.931548 10 4073 11 8418 24 8668 9 4265
10442 -5.83162 1.30836 4.52598 72 60 47 0.362249 11 5775 12 6282 24 6050 25 5936 9 4266
10443 -6.02172 1.39417 4.63412 50 48 43 0.735596 10 4074 13 11169 23 8025 24 5923 25 5934 9 4267
10444 -6.09502 1.43898 4.61463 115 107 98 0.298008 10 1122 11 5581 12 4059 23 8032 24 5925 25 1678 9 4268 13 10057
10445 -6.01399 1.38659 4.5927 47 42 35 0.748703 10 1121 11 5578 13 11170 23 8113 24 6052 25 5935 9 4269
10446 -6.27548 1.60048 4.64492 56 52 47 0.480288 10 4076 11 8348 12 7529 13 11806 23 8033 24 8565 25 8437 9 4271
10452 -10.5327 2.6457 4.6412 64 76 32 1.35511 10 4093 9 4289
10454 -6.12538 4.57853 4.49529 98 91 77 0.492271 11 10013 25 8535
10455 -5.89081 4.43603 4.37547 94 87 77 0.714695 10 4106 11 8451 23 5717 24 6102 25 5982 9 4302
10457 -6.21075 4.68176 4.4889 70 62 53 0.307798 10 4107 24 5955 9 4304
10458 -5.99123 4.61555 4.38675 79 72 63 0.483229 24 6108 9 4308 11 8371 25 1779
10461 -6.78816 5.65599 4.40441 77 69 60 0.706555 11 10023 24 5965 25 5993 9 4314
10462 -6.78816 5.65599 4.40441 77 69 60 0.706555 11 10022 24 5966 25 5992 9 4315
10463 -14.1855 8.62099 4.16137 21 23 14 0.484244 10 4121 9 4323
10464 -20.0763 15.3069 3.75549 35 45 16 1.73414 8 1393 10 4139 24 2090 9 4343
10465 -13.5035 12.0239 3.96568 42 53 23 2.21046 8 4283 24 8715 9 4347
10467 -5.43513 0.395618 4.40188 58 54 48 0.313721 10 4158 11 8404 12 6354 13 11210 14 9870 24 8751 25 10228 9 4366
10470 -5.40834 0.495552 4.38644 38 34 30 0.423886 10 4159 11 5757 12 4189 13 8378 24 6198 25 6054 9 4371 14 8938
10471 -5.41051 0.742507 4.40402 148 142 130 0.249987 10 4163 11 8410 12 6357 13 11215 14 9876 24 8757 25 8593 9 4372
10472 -5.41051 0.742507 4.40402 148 142 130 0.249987 10 4164 11 8411 12 6358 13 11214 14 9875 24 8756 25 8594 9 4373
10473 -5.4084 0.788295 4.40259 78 71 65 0.653621 10 4165 11 8412 12 7571 13 11216 14 10435 24 8758 25 8595 9 4374
10474 -5.40797 0.788325 4.40257 77 70 64 0.676548 10 4166 11 8413 12 7572 13 11217 14 10434 25 8596 9 4375
10475 -5.39226 0.9146 4.40684 67 61 55 1.86169 10 4162 11 8414 12 7575 13 11221 24 8759 25 8597 9 4376 14 10437
10476 -5.38353 0.838038 4.38529 139 130 123 1.24435 13 11218 14 10436 25 10231 9 4379
10477 -5.42102 0.987605 4.36259 85 80 75 0.189477 10 1266 11 5933 12 4201 13 10113 14 8948 24 6206 25 6064 9 4380
10478 -5.49095 1.03434 4.37477 59 49 41 0.766848 10 4167 11 5763 12 4202 14 8950 24 6208 25 6066 9 4381 10 1268
10479 -5.43006 1.01359 4.31314 93 91 86 0.39435 10 1269 11 5934 12 4338 13 10186 14 9008 25 6069 9 4382 24 6211
10480 -5.52485 1.05946 4.36455 116 112 106 0.420918 10 4169 11 5764 12 6363 13 10118 14 9881 23 8191 24 6209 25 6068 9 4383
10481 -5.59086 1.09624 4.45753 121 114 108 0.897527 11 5766 12 4203 13 10114 14 9880 23 8106 24 8667 25 5928 9 4384 24 6046
10482 -5.59207 1.09597 4.45732 119 113 106 0.788322 11 5767 12 4204 13 10115 14 9879 24 8666 25 5929 9 4385 24 6047
10483 -5.68214 1.22126 4.33003 84 73 53 0.512187 13 11224 14 9882 23 8195 9 4386
10484 -5.71138 1.2455 4.31925 32 29 24 0.347684 12 6365 13 10192 23 8200 25 6074 9 4387 24 6218
10485 -5.71225 1.24497 4.31949 33 30 25 0.28676 23 8199 24 6219 9 4388
10486 -5.77746 1.31651 4.26427 78 66 52 0.123923 11 8512 9 4389
10487 -5.84158 1.34654 4.29494 33 29 25 0.987257 10 6054 11 8510 12 7619 13 11263 23 8203 24 8768 25 8602 9 4390
10488 -5.84158 1.34654 4.29494 33 29 25 0.987257 10 6055 11 8511 12 7620 13 11264 23 8204 24 8769 25 8603 9 4391
10489 -6.15881 1.47555 4.28206 60 47 38 0.387725 11 5945 12 6441 23 8205 24 6222 9 4392
10491 -8.05504 2.4702 4.3421 142 130 106 0.168546 10 4183 23 8129 24 6083 9 4400 11 5806
10493 -6.31386 3.61255 4.27791 148 141 132 1.11878 22 1770 23 5704 9 4408
10495 -5.61237 4.28531 4.19319 135 131 124 0.51935 11 8547 23 5856 24 6264 9 4417
10496 -6.29322 5.21035 4.17714 100 93 80 0.46307 10 4205 11 8458 23 5866 24 6116 9 4427
10497 -5.5989 7.63913 4.07905 148 138 121 0.16685 24 6145 25 6150 9 4448
10498 -5.30542 7.80523 4.02799 39 35 32 1.10246 4 8636 9 4451
10500 -5.45073 8.43643 4.11864 70 66 62 0.803128 24 6153 25 6160 9 4461
10502 -5.29767 0.589 4.31821 68 61 52 0.456063 10 4250 12 6428 14 9903 25 8590 9 4472
10503 -5.29801 0.669784 4.31254 55 48 40 0.492726 10 4251 11 8499 13 10181 14 8999 24 6201 25 6061 9 4473
10504 -5.24798 0.696954 4.22157 122 114 105 1.74257 10 4253 11 8501 12 6429 13 11255 24 8862 9 4475
10505 -5.24962 0.765287 4.24498 145 137 127 0.252419 10 4252 11 8500 12 6430 13 10183 14 9906 24 8755 25 8694 9 4476
10506 -5.23974 0.840837 4.14229 34 31 27 0.874428 10 1427 11 6090 12 4474 13 10272 14 9942 24 8865 25 6208 9 4479
10507 -5.29528 0.895978 4.21321 42 39 34 0.380107 10 4254 11 8502 12 6431 13 10184 14 9908 25 8695 9 4480
10508 -5.47882 1.0521 4.21568 70 66 60 0.327004 10 4256 11 8506 12 6433 13 11259 14 9910 23 8192 25 6210 9 4481
10509 -5.47823 1.05217 4.2159 72 68 62 0.352584 10 4257 12 6434 14 9911 25 6211 9 4482
10510 -5.46169 1.04112 4.13942 43 40 37 1.38571 13 11296 14 9946 24 6368 25 6213 9 4483
10511 -5.58669 1.15049 4.2367 22 21 17 0.623653 10 4258 11 8508 12 6435 13 10190 14 9914 23 8197 25 6073 9 4485 11 5941 24 6217 24 8766
10512 -5.55307 1.1186 4.20829 34 32 28 0.32553 10 1432 11 5940 12 4342 13 10191 14 9010 23 8193 24 6214 25 6214 9 4486
10513 -5.65575 1.22389 4.23901 25 23 19 0.343091 10 4262 11 8513 12 6436 13 11262 14 9915 23 8198 24 8770 9 4487
10514 -5.61965 1.17617 4.1199 97 93 84 0.366862 10 1437 11 6095 12 4479 13 10279 14 9080 23 8295 24 6371 25 6215 9 4488
10515 -5.63735 1.18409 4.0917 29 29 26 0.387883 10 4261 11 8605 12 6515 13 11300 14 9948 24 8870 9 4489
10516 -5.81872 1.28465 4.1833 40 35 29 2.45625 10 6115 11 10099 12 7621 23 8201 9 4490
10517 -5.71603 1.26681 4.15398 60 45 35 1.90721 11 8514 12 6439 13 11302 24 6374 9 4491
10520 -6.16887 1.54462 4.22317 96 80 62 0.288443 10 4264 23 8208
10522 -6.10491 1.60629 4.11239 50 44 38 0.764185 10 4266 11 8611 12 6446 13 11303 23 8299 9 4497
10523 -6.19157 1.66011 4.15449 50 42 34 0.277677 10 4270 12 6448 13 11269 25 8710 9 4499
10524 -6.45118 1.83142 4.0183 48 45 38 1.68002 11 6110 13 10289 24 6386 25 2181 12 4498 13 8678
10526 -5.89183 3.65606 4.08876 102 97 88 1.15111 10 4285 11 10119 12 8942 23 5846 25 8730 9 4515
10527 -5.57794 4.52977 3.94335 47 42 36 0.852053 10 4423 11 10181 22 6000 23 6041 24 6433 25 6251 9 4523
10528 -6.3392 5.36856 4.01488 62 56 48 0.416785 10 4303 24 6274 9 4528
10529 -6.21673 5.33287 3.88724 55 50 42 0.282564 10 4305 11 8665 24 6276 9 4531
10530 -6.21673 5.33287 3.88724 55 50 42 0.282564 10 4306 11 8666 24 6277 9 4532
10531 -14.4175 8.6703 3.22764 74 66 54 0.156995 23 8342 9 4542 7 4206
10532 -7.75814 7.30495 3.86046 190 184 165 0.220632 10 4320 23 5895 24 6297 25 6272 9 4545
10533 -7.75814 7.30495 3.86046 190 184 165 0.220632 10 4319 23 5896 24 6296 25 6271 9 4546
10534 -7.33183 7.83137 3.66984 114 103 93 0.333092 23 6082 24 6311 25 6286 9 4560
10535 -5.51046 7.56497 3.78359 54 47 41 0.269086 24 2336 25 6298
10536 -5.17646 0.453802 4.15457 79 69 57 0.247692 10 4248 11 8595 24 8860 9 4583
10537 -5.18099 0.699145 4.13864 110 95 76 0.824807 10 4359 11 8597 12 6507 24 8863 9 4584
10538 -5.17976 0.718655 4.05631 109 95 72 1.16961 11 6086 12 4471 13 10268 14 9974 24 10498 9 4585 10 4360
10539 -5.17976 0.718655 4.05631 109 95 72 1.16961 11 6087 12 4472 13 10269 14 9973 24 10499 9 4586 10 4361
10540 -5.19131 0.761165 4.00883 83 80 70 0.62193 11 6088 13 10329 14 9977 24 6526 25 6342 9 4587
10541 -5.17446 0.73776 3.99702 41 36 29 1.03499 10 4363 11 6205 12 6508 13 10321 14 9128 24 8950 9 4588
10542 -5.22365 0.804779 4.13094 38 36 32 0.319827 10 4364 12 6509 13 10270 14 9943 24 8864 9 4589 11 6089 11 8600
10543 -5.18667 0.765002 4.03835 22 21 19 1.58044 10 4362 11 8598 14 9976 25 8804 9 4590
10544 -5.21955 0.807572 3.97499 43 40 34 0.7878 11 8705 12 6585 13 10330 14 9978 24 8952 25 8806 9 4591
